0 0 0 0 0 0 0 0 0 0 0 0 0 0 0 0 0 0 0 0 1619 1619 1624 1619 1624 1624 1628 1632 1637 1641 1645 1645 1650 1659 1668 1672 1677 1682 1686 1691 1696 1696 1691 1691 1691 1691 1686 1686 1686 1682 1682 1682 1682 1682 1682 1682 1686 1691 1696 1705 1719 1734 1744 1759 1769 1779 1790 1795 1800 1806 1806 1806 1806 1806 1811 1811 1811 1811 1816 1816 1822 1827 1833 1838 1849 1855 1861 1866 1872 1878 1889 1895 1901 1907 1913 1919 1925 1925 1925 1925 1931 1937 1937 1943 1943 1943 1956 1962 1968 1975 1981 2000 2007 2020 2027 2040 2047 2061 2068 2082 2089 2096 2103 2111 2118 2125 2133 2133 2133 2133 2133 2133 2133 2133 2133 2133 2133 2140 2140 2148 2155 2155 2155 2163 2163 2171 2171 2178 2186 2186 2194 2202 2210 2210 2218 2218 2226 2234 2242 2242 2250 2250 2250 2250 2250 2250 2250 2242 2242 2234 2234 2234 2234 2234 2242 2250 2267 2276 2293 2301 2319 2336 2354 2363 2373 2382 2391 2400 2400 2410 2419 2419 2419 2419 2419 2419 2429 2448 2448 2458 2468 2488 2498 2498 2519 2519 2529 2529 2540 2540 2540 2540 2540 2540 2550 2550 2561 2572 2583 2594 2605 2616 2627 2627 2627 2627 2638 2638 2650 2650 2661 2673 2685 2697 2708 2721 2708 2708 2721 2733 2745 2770 2782 2795 2821 2834 2860 2874 2887 2901 2929 2943 2971 2986 3015 3030 3045 3061 3061 3045 3030 3015 3001 2971 2957 2929 2915 2901 2887 2887 2887 2887 2874 2887 2874 2874 2847 2834 2808 2782 2733 2697 2673 2627 2594 2572 2561 2540 2540 2550 2594 2627 2661 2697 2745 2795 2834 2874 2901 2901 2915 2915 2915 2929 2929 2943 2957 2971 2986 3015 3045 3061 3107 3139 3155 3188 3188 3205 3222 3205 3205 3155 3155 3139 3139 3123 3123 3123 3139 3155 3172 3188 3205 3188 3188 3188 3172 3188 3172 3155 3155 3139 3123 3107 3107 3107 3091 3091 3076 3076 3076 3076 3076 3076 3076 3076 3091 3091 3091 3091 3107 3123 3123 3155 3155 3155 3172 3188 3205 3205 3222 3222 3239 3222 3222 3222 3222 3205 3188 3172 3155 3123 3107 3091 3076 3045 3030 3015 2986 2971 2971 2957 2957 2957 2971 2971 2971 2957 2971 2971 2971 2971 2957 2957 2957 2957 2957 2957 2957 2957 2943 2943 2943 2929 2929 2915 2915 2901 2887 2874 2874 2874 2860 2860 2860 2860 2860 2874 2874 2874 2887 2887 2887 2887 2901 2901 2901 2901 2901 2901 2901 2901 2901 2901 2887 2887 2887 2874 2874 2874 2874 2874 2860 2860 2860 2860 2874 2874 2887 2887 2887 2887 2887 2887 2887 2887 2887 2887 2887 2887 2887 2887 2887 2887 2887 2887 2887 2887 2874 2874 2874 2874 2874 2887 2887 2887 2887 2901 2901 2901 2915 2915 2915 2929 2929 2929 2929 2929 2929 2915 2915 2915 2915 2915 2915 2901 2887 2887 2887 2874 2874 2860 2860 2860 2860 2860 2860 2860 2860 2860 2860 2874 2874 2887 2887 2901 2901 2901 2901 2901 2901 2901 2901 2887 2887 2887 2887 2887 2874 2874 2860 2860 2847 2847 2847 2834 2834 2834 2834 2834 2821 2821 2821 2821 2834 2834 2834 2834 2847 2847 2847 2847 2847 2847 2834 2834 2821 2821 2821 2821 2821 2808 2795 2795 2795 2782 2770 2770 2770 2757 2770 2770 2757 2770 2770 2770 2757 2745 2745 2733 2733 2733 2721 2721 2721 2708 2708 2721 2721 2721 2721 2733 2733 2733 2745 2757 2757 2770 2770 2782 2782 2782 2782 2782 2782 2770 2770 2770 2770 2757 2757 2757 2757 2757 2757 2757 2757 2757 2757 2757 2757 2770 2770 2770 2770 2770 2782 2782 2782 2782
0 0 0 0 0 0 0 0 0 0 0 0 0 0 0 0 0 0 0 0 1619 1619 1624 1624 1624 1628 1628 1637 1637 1641 1645 1645 1650 1659 1663 1672 1677 1682 1686 1691 1696 1696 1691 1691 1691 1691 1686 1686 1686 1682 1682 1682 1682 1682 1677 1682 1686 1691 1696 1705 1719 1734 1749 1759 1769 1779 1790 1795 1800 1800 1806 1800 1800 1806 1806 1806 1806 1806 1811 1811 1816 1822 1827 1838 1844 1849 1855 1866 1872 1878 1889 1895 1901 1907 1913 1925 1931 1931 1931 1931 1937 1937 1943 1949 1949 1956 1962 1968 1975 1981 1994 2000 2014 2020 2027 2034 2047 2061 2068 2082 2089 2096 2103 2111 2118 2125 2125 2133 2125 2133 2133 2133 2133 2125 2133 2133 2133 2140 2140 2148 2148 2148 2155 2155 2163 2163 2171 2178 2178 2186 2194 2202 2210 2218 2218 2226 2234 2234 2242 2250 2250 2250 2250 2259 2250 2250 2250 2242 2242 2242 2234 2234 2234 2234 2250 2259 2267 2276 2293 2310 2327 2336 2354 2363 2373 2391 2400 2400 2410 2410 2419 2419 2419 2419 2419 2419 2429 2448 2458 2458 2468 2478 2488 2498 2509 2519 2519 2519 2519 2519 2519 2519 2519 2529 2540 2540 2550 2572 2583 2594 2605 2627 2627 2627 2638 2638 2638 2638 2650 2650 2661 2673 2685 2697 2708 2708 2708 2708 2721 2733 2757 2770 2795 2821 2847 2860 2887 2887 2901 2915 2929 2957 2971 2986 3015 3030 3045 3045 3045 3030 3015 2986 2986 2957 2943 2929 2915 2901 2887 2887 2887 2887 2887 2887 2887 2887 2874 2860 2847 2821 2782 2745 2708 2673 2638 2605 2572 2561 2550 2561 2583 2616 2650 2685 2721 2770 2821 2860 2887 2901 2901 2901 2901 2915 2915 2929 2929 2943 2957 2971 3015 3030 3061 3091 3123 3139 3155 3172 3188 3172 3155 3139 3139 3123 3123 3123 3123 3123 3139 3139 3172 3188 3188 3205 3188 3188 3188 3172 3172 3172 3155 3155 3123 3107 3107 3107 3091 3091 3091 3076 3076 3076 3091 3091 3091 3091 3091 3107 3107 3123 3123 3139 3155 3155 3172 3188 3205 3205 3222 3222 3239 3239 3239 3239 3239 3222 3205 3188 3172 3172 3155 3123 3107 3091 3076 3061 3045 3030 3015 3001 3001 2986 2986 2986 3001 3001 2986 2986 2986 2986 2986 2986 2971 2971 2971 2971 2957 2957 2957 2957 2957 2943 2929 2929 2929 2915 2915 2901 2887 2887 2874 2874 2874 2860 2860 2860 2874 2874 2874 2874 2887 2887 2887 2901 2901 2901 2901 2901 2901 2901 2901 2901 2887 2887 2887 2874 2874 2874 2874 2860 2860 2860 2860 2860 2860 2860 2874 2887 2887 2887 2887 2887 2887 2901 2901 2901 2901 2901 2901 2901 2901 2901 2901 2901 2887 2887 2887 2887 2874 2874 2874 2874 2874 2860 2874 2874 2874 2874 2887 2887 2887 2901 2915 2915 2915 2915 2915 2915 2915 2915 2915 2915 2915 2915 2901 2901 2887 2887 2887 2874 2874 2874 2874 2874 2860 2874 2874 2874 2874 2874 2860 2874 2874 2887 2887 2887 2887 2887 2901 2901 2901 2887 2887 2887 2887 2887 2887 2887 2874 2874 2874 2860 2860 2860 2860 2847 2847 2847 2847 2847 2834 2834 2834 2834 2834 2834 2834 2847 2847 2860 2860 2860 2847 2847 2847 2847 2834 2834 2821 2821 2821 2808 2795 2795 2795 2782 2770 2770 2770 2757 2770 2757 2757 2770 2770 2770 2770 2757 2745 2745 2745 2733 2733 2733 2733 2721 2733 2733 2721 2721 2733 2733 2733 2733 2745 2757 2757 2757 2770 2770 2770 2770 2770 2782 2770 2770 2770 2770 2770 2770 2757 2757 2757 2757 2757 2757 2757 2757 2770 2770 2770 2770 2770 2782 2782 2782 2782 2782 2782 2782
0 0 0 0 0 0 0 0 0 0 0 0 0 0 0 0 0 0 0 0 1615 1619 1619 1624 1624 1628 1628 1632 1637 1641 1641 1645 1650 1659 1663 1668 1672 1677 1682 1686 1691 1691 1696 1691 1691 1691 1686 1686 1686 1686 1682 1682 1682 1682 1682 1682 1686 1691 1696 1710 1719 1734 1749 1759 1774 1785 1790 1795 1800 1800 1806 1800 1800 1800 1800 1800 1800 1800 1806 1811 1811 1816 1822 1838 1844 1849 1855 1861 1866 1878 1889 1895 1901 1907 1919 1925 1931 1931 1937 1937 1943 1943 1949 1956 1962 1962 1968 1975 1981 1987 2000 2007 2014 2020 2027 2040 2047 2054 2068 2082 2089 2096 2103 2111 2118 2125 2125 2125 2125 2125 2125 2125 2125 2125 2125 2133 2133 2140 2140 2148 2148 2148 2155 2155 2163 2163 2171 2178 2186 2186 2194 2202 2210 2218 2218 2226 2234 2242 2250 2250 2250 2250 2259 2259 2259 2250 2250 2242 2242 2242 2234 2234 2234 2242 2250 2259 2267 2276 2293 2310 2319 2336 2345 2363 2373 2382 2391 2400 2400 2400 2410 2419 2419 2410 2419 2429 2439 2448 2458 2458 2468 2488 2488 2498 2498 2509 2509 2509 2509 2509 2509 2509 2509 2519 2529 2540 2550 2561 2583 2594 2605 2616 2627 2627 2638 2638 2638 2650 2661 2661 2673 2673 2685 2697 2708 2708 2708 2708 2721 2733 2770 2782 2808 2847 2860 2887 2901 2915 2929 2943 2943 2957 2971 2986 3001 3015 3015 3030 3015 3001 3001 2971 2957 2943 2929 2915 2901 2887 2887 2874 2887 2887 2887 2887 2887 2887 2887 2874 2860 2847 2821 2782 2745 2721 2685 2638 2616 2583 2583 2572 2594 2616 2638 2661 2697 2745 2782 2821 2847 2860 2874 2874 2887 2887 2887 2901 2915 2915 2943 2957 2971 3001 3030 3045 3076 3091 3123 3139 3139 3139 3139 3107 3107 3107 3091 3107 3107 3107 3123 3139 3155 3172 3188 3188 3188 3188 3188 3172 3172 3172 3155 3155 3123 3107 3107 3107 3091 3091 3091 3091 3091 3091 3091 3107 3107 3107 3123 3123 3139 3139 3155 3155 3172 3188 3205 3205 3222 3239 3239 3239 3239 3239 3239 3239 3222 3205 3205 3188 3172 3155 3139 3123 3107 3091 3076 3061 3061 3045 3030 3015 3015 3015 3015 3015 3030 3015 3015 3015 3015 3001 3001 3001 2986 2971 2971 2971 2971 2971 2957 2957 2943 2943 2929 2929 2915 2915 2901 2901 2887 2887 2887 2874 2874 2874 2874 2874 2874 2874 2887 2887 2901 2901 2901 2901 2901 2901 2901 2901 2901 2887 2887 2887 2887 2874 2874 2860 2874 2860 2860 2860 2860 2860 2874 2874 2874 2874 2887 2887 2887 2901 2901 2901 2915 2915 2915 2915 2929 2929 2929 2929 2915 2915 2915 2901 2901 2901 2901 2887 2874 2874 2874 2860 2860 2860 2874 2874 2874 2874 2887 2887 2901 2901 2915 2915 2915 2915 2915 2915 2915 2915 2915 2915 2915 2901 2901 2901 2887 2887 2874 2887 2874 2874 2860 2874 2860 2874 2874 2860 2860 2860 2874 2874 2874 2874 2887 2887 2887 2887 2887 2887 2887 2887 2887 2887 2887 2887 2887 2887 2887 2887 2874 2874 2874 2874 2874 2874 2860 2860 2860 2860 2847 2834 2834 2834 2834 2834 2834 2834 2834 2847 2860 2860 2860 2847 2847 2834 2834 2834 2834 2834 2821 2808 2808 2795 2795 2782 2782 2770 2770 2770 2770 2770 2770 2770 2770 2770 2770 2770 2757 2757 2757 2745 2745 2745 2733 2733 2733 2733 2733 2733 2733 2733 2733 2733 2745 2745 2757 2757 2757 2757 2757 2757 2757 2757 2770 2757 2757 2757 2757 2757 2770 2757 2757 2757 2757 2770 2770 2770 2770 2770 2782 2782 2782 2795 2795 2782 2782 2782 2782 2782
0 0 0 0 0 0 0 0 0 0 0 0 0 0 0 0 0 0 0 0 0 1619 1619 1619 1624 1628 1632 1632 1637 1641 1645 1645 1650 1654 1663 1668 1672 1677 1682 1686 1691 1691 1691 1691 1691 1691 1691 1691 1691 1686 1686 1686 1686 1686 1686 1686 1691 1696 1700 1715 1729 1739 1754 1764 1779 1785 1795 1800 1800 1806 1800 1800 1800 1800 1795 1795 1795 1800 1800 1806 1811 1816 1822 1833 1838 1849 1855 1861 1866 1878 1889 1895 1907 1913 1919 1925 1937 1937 1943 1943 1949 1956 1962 1962 1962 1968 1975 1981 1987 1994 2000 2007 2014 2020 2034 2040 2054 2061 2068 2082 2089 2096 2103 2111 2118 2125 2125 2125 2118 2125 2125 2125 2125 2125 2125 2133 2133 2133 2140 2148 2148 2155 2155 2163 2163 2171 2178 2178 2186 2194 2202 2210 2218 2218 2226 2226 2234 2242 2250 2250 2259 2259 2259 2259 2259 2250 2250 2250 2242 2242 2242 2234 2234 2242 2250 2267 2276 2284 2293 2310 2319 2336 2345 2354 2363 2373 2382 2391 2391 2391 2400 2410 2410 2410 2419 2429 2439 2458 2468 2468 2468 2478 2488 2498 2498 2498 2498 2498 2498 2498 2498 2498 2509 2509 2519 2529 2540 2561 2572 2583 2605 2616 2616 2627 2627 2627 2638 2650 2661 2673 2673 2685 2685 2697 2697 2697 2697 2708 2708 2745 2757 2782 2821 2860 2874 2901 2915 2929 2943 2943 2957 2971 2971 2986 2986 3001 3001 3001 3001 2986 2971 2957 2943 2929 2915 2901 2887 2887 2874 2874 2874 2887 2887 2887 2887 2887 2887 2887 2874 2860 2834 2821 2782 2757 2721 2697 2661 2627 2605 2605 2605 2616 2627 2650 2673 2697 2733 2770 2795 2808 2821 2834 2847 2847 2860 2874 2874 2887 2901 2929 2943 2957 2986 3015 3030 3061 3076 3091 3107 3091 3091 3076 3076 3076 3076 3076 3091 3107 3123 3139 3155 3172 3172 3188 3188 3188 3172 3188 3172 3172 3155 3155 3123 3107 3107 3107 3107 3091 3091 3091 3091 3091 3107 3107 3107 3123 3139 3139 3155 3172 3172 3188 3205 3222 3222 3239 3239 3256 3256 3256 3256 3256 3239 3239 3222 3205 3188 3188 3155 3155 3139 3123 3107 3091 3076 3076 3076 3061 3061 3045 3045 3045 3045 3045 3045 3045 3030 3030 3015 3015 3001 3001 2986 2971 2971 2971 2971 2971 2957 2957 2957 2943 2929 2929 2915 2915 2901 2901 2901 2887 2887 2887 2887 2887 2887 2887 2887 2901 2901 2901 2901 2901 2901 2915 2915 2915 2915 2901 2901 2901 2887 2887 2874 2874 2874 2874 2874 2860 2860 2860 2860 2874 2874 2874 2874 2887 2901 2901 2901 2915 2915 2929 2929 2929 2929 2943 2943 2943 2943 2943 2943 2943 2929 2915 2915 2915 2901 2901 2887 2887 2887 2874 2874 2874 2860 2874 2874 2887 2887 2887 2887 2915 2915 2915 2915 2915 2915 2915 2915 2915 2915 2915 2901 2915 2901 2901 2887 2887 2887 2874 2874 2887 2874 2874 2874 2874 2874 2874 2874 2874 2874 2860 2874 2874 2887 2887 2887 2887 2887 2887 2887 2901 2901 2901 2901 2901 2901 2901 2901 2901 2901 2901 2901 2887 2887 2887 2874 2874 2874 2874 2860 2847 2847 2834 2834 2834 2834 2834 2834 2834 2834 2834 2847 2847 2847 2847 2834 2834 2821 2821 2808 2808 2808 2795 2795 2782 2782 2770 2770 2770 2770 2770 2770 2770 2770 2770 2782 2770 2770 2770 2770 2770 2757 2757 2745 2745 2745 2745 2745 2745 2745 2745 2745 2745 2745 2745 2757 2757 2757 2757 2757 2757 2757 2757 2757 2757 2757 2757 2757 2770 2770 2770 2770 2770 2770 2770 2770 2782 2782 2782 2795 2795 2795 2795 2795 2795 2795 2795 2795 2795
0 0 0 0 0 0 0 0 0 0 0 0 0 0 0 0 0 0 0 0 0 1619 1619 1624 1624 1628 1632 1637 1641 1641 1645 1650 1654 1654 1659 1663 1672 1677 1682 1686 1691 1691 1696 1691 1691 1696 1691 1696 1691 1691 1686 1686 1686 1686 1686 1691 1696 1700 1710 1719 1734 1749 1759 1769 1785 1790 1800 1800 1806 1806 1800 1800 1795 1800 1795 1790 1795 1795 1795 1800 1806 1816 1816 1833 1838 1849 1849 1861 1872 1878 1889 1901 1907 1919 1925 1931 1937 1943 1949 1956 1956 1962 1962 1968 1975 1975 1981 1987 1994 1994 2007 2014 2020 2027 2040 2047 2054 2061 2068 2082 2089 2096 2103 2103 2111 2118 2118 2118 2118 2118 2118 2125 2125 2125 2125 2133 2133 2140 2148 2155 2155 2155 2163 2171 2171 2178 2178 2186 2186 2194 2202 2210 2218 2218 2226 2234 2242 2242 2250 2250 2259 2259 2259 2259 2259 2259 2250 2250 2250 2242 2242 2242 2242 2242 2250 2267 2276 2284 2293 2310 2319 2327 2336 2345 2345 2363 2373 2373 2382 2382 2391 2400 2410 2419 2419 2429 2448 2458 2468 2478 2488 2488 2498 2498 2498 2498 2498 2498 2488 2488 2488 2488 2488 2498 2509 2519 2529 2550 2561 2583 2583 2605 2616 2616 2616 2627 2638 2650 2661 2661 2685 2697 2697 2708 2697 2697 2685 2697 2708 2733 2757 2782 2821 2860 2887 2915 2929 2943 2957 2957 2957 2971 2971 2971 2971 2971 2986 2986 2971 2957 2957 2929 2929 2915 2901 2887 2874 2874 2874 2874 2874 2874 2874 2887 2887 2887 2874 2874 2874 2874 2860 2834 2808 2782 2757 2733 2708 2673 2638 2627 2616 2627 2627 2627 2638 2661 2685 2721 2733 2745 2770 2782 2795 2821 2834 2834 2847 2860 2860 2887 2915 2929 2943 2971 2986 3015 3030 3045 3061 3061 3061 3061 3061 3061 3061 3076 3091 3091 3107 3123 3155 3155 3172 3172 3172 3172 3172 3172 3155 3155 3155 3139 3123 3123 3107 3107 3107 3091 3091 3091 3091 3107 3123 3123 3123 3139 3139 3155 3172 3188 3205 3205 3239 3239 3256 3256 3256 3273 3273 3273 3273 3256 3256 3239 3222 3205 3188 3172 3155 3139 3123 3107 3107 3107 3091 3091 3091 3076 3076 3076 3076 3076 3076 3076 3076 3076 3061 3045 3045 3015 3015 3001 3001 2986 2971 2971 2971 2957 2957 2957 2943 2943 2943 2929 2929 2915 2915 2915 2901 2901 2901 2901 2901 2901 2901 2901 2915 2915 2915 2915 2915 2915 2915 2915 2915 2915 2915 2901 2901 2887 2887 2887 2887 2874 2874 2874 2874 2874 2874 2874 2874 2887 2887 2887 2887 2901 2915 2915 2915 2929 2943 2943 2943 2943 2957 2957 2971 2971 2971 2971 2957 2957 2957 2943 2929 2929 2915 2915 2901 2901 2887 2887 2874 2874 2874 2887 2887 2887 2901 2901 2901 2915 2915 2915 2915 2915 2915 2915 2915 2915 2929 2915 2915 2915 2915 2915 2915 2901 2901 2887 2887 2901 2887 2887 2887 2887 2874 2874 2874 2874 2874 2874 2874 2887 2887 2887 2887 2887 2887 2887 2901 2901 2901 2901 2901 2901 2915 2915 2915 2915 2915 2915 2915 2915 2901 2901 2901 2887 2887 2887 2874 2860 2847 2834 2834 2821 2821 2821 2808 2821 2821 2834 2834 2834 2834 2834 2834 2821 2821 2821 2808 2808 2808 2795 2795 2795 2782 2770 2770 2770 2770 2782 2770 2782 2782 2782 2782 2782 2782 2782 2782 2770 2770 2770 2770 2770 2770 2770 2757 2757 2757 2757 2757 2757 2757 2757 2757 2757 2757 2757 2757 2757 2757 2757 2757 2757 2757 2757 2770 2770 2770 2770 2770 2782 2782 2782 2795 2795 2795 2808 2808 2821 2821 2821 2821 2808 2808 2808 2808 2808
0 0 0 0 0 0 0 0 0 0 0 0 0 0 0 0 0 0 0 0 1615 1619 1619 1624 1628 1628 1632 1637 1641 1645 1645 1650 1654 1659 1663 1668 1672 1677 1682 1686 1691 1696 1696 1696 1696 1696 1696 1696 1696 1691 1691 1691 1691 1691 1696 1696 1705 1710 1719 1729 1739 1754 1764 1779 1790 1795 1800 1800 1806 1806 1800 1795 1795 1795 1790 1790 1790 1790 1795 1800 1806 1811 1816 1827 1838 1844 1849 1861 1872 1883 1889 1901 1913 1919 1931 1937 1943 1949 1956 1956 1962 1968 1975 1975 1981 1981 1987 1994 2000 2007 2014 2020 2027 2034 2040 2047 2054 2061 2075 2082 2089 2096 2103 2103 2111 2118 2118 2118 2118 2118 2118 2118 2125 2125 2125 2133 2140 2148 2148 2155 2163 2163 2171 2171 2171 2178 2178 2186 2194 2202 2210 2210 2218 2218 2226 2234 2242 2242 2250 2250 2259 2259 2259 2267 2259 2259 2250 2250 2250 2250 2250 2250 2250 2250 2259 2267 2276 2284 2301 2301 2319 2327 2327 2336 2336 2354 2354 2363 2373 2373 2382 2400 2410 2419 2429 2448 2458 2468 2478 2488 2488 2488 2498 2498 2488 2488 2488 2488 2488 2478 2478 2488 2488 2488 2498 2519 2519 2540 2550 2572 2572 2594 2605 2605 2616 2627 2638 2650 2661 2673 2685 2697 2697 2697 2685 2685 2685 2697 2708 2733 2745 2782 2821 2874 2901 2929 2943 2957 2957 2971 2971 2971 2971 2971 2957 2957 2957 2957 2957 2943 2929 2915 2901 2901 2887 2874 2874 2874 2874 2874 2874 2874 2887 2874 2887 2887 2874 2874 2874 2874 2874 2860 2834 2821 2795 2770 2745 2721 2673 2650 2627 2627 2616 2616 2605 2616 2627 2661 2685 2697 2708 2733 2757 2770 2795 2808 2821 2834 2847 2860 2874 2887 2915 2929 2943 2971 3001 3015 3030 3030 3030 3030 3045 3045 3045 3061 3076 3076 3091 3107 3123 3139 3155 3155 3172 3172 3172 3155 3155 3155 3139 3139 3123 3107 3107 3107 3107 3091 3091 3091 3107 3107 3123 3123 3139 3139 3155 3172 3188 3205 3222 3239 3239 3273 3273 3273 3291 3291 3291 3291 3291 3273 3256 3256 3239 3205 3188 3172 3155 3139 3123 3123 3123 3123 3107 3123 3107 3123 3107 3107 3107 3107 3107 3107 3107 3091 3076 3076 3045 3030 3015 3015 3001 2986 2971 2971 2971 2971 2971 2957 2957 2943 2943 2943 2929 2929 2929 2929 2929 2929 2929 2929 2929 2915 2915 2929 2929 2929 2929 2929 2929 2929 2929 2929 2929 2915 2915 2915 2901 2901 2887 2887 2887 2887 2887 2887 2887 2887 2887 2887 2887 2901 2901 2901 2915 2915 2929 2929 2943 2943 2957 2957 2957 2971 2986 2986 2986 2986 3001 2986 2986 2986 2971 2957 2957 2943 2929 2915 2901 2901 2901 2901 2887 2874 2874 2887 2887 2901 2901 2901 2915 2915 2915 2915 2915 2915 2915 2915 2915 2915 2929 2915 2929 2929 2915 2915 2915 2915 2915 2915 2901 2901 2901 2901 2901 2887 2874 2874 2874 2874 2874 2874 2874 2874 2887 2887 2887 2887 2901 2901 2901 2901 2915 2915 2915 2915 2915 2915 2929 2929 2929 2929 2929 2929 2915 2915 2901 2901 2901 2887 2887 2860 2847 2834 2834 2808 2808 2795 2795 2795 2808 2808 2821 2821 2821 2821 2821 2808 2808 2808 2808 2795 2795 2795 2795 2795 2782 2782 2782 2782 2782 2782 2782 2782 2795 2808 2808 2795 2795 2795 2795 2795 2795 2795 2782 2782 2782 2782 2770 2770 2770 2757 2757 2757 2757 2757 2757 2757 2757 2757 2757 2757 2757 2757 2757 2770 2770 2770 2770 2782 2782 2782 2795 2795 2795 2808 2821 2821 2821 2834 2834 2847 2847 2847 2834 2834 2821 2821 2808 2808
0 0 0 0 0 0 0 0 0 0 0 0 0 0 0 0 0 0 0 1615 1619 1619 1619 1624 1628 1628 1632 1637 1641 1645 1650 1650 1654 1659 1663 1672 1677 1682 1686 1686 1696 1696 1700 1700 1700 1696 1696 1700 1700 1696 1696 1696 1700 1700 1700 1705 1715 1719 1729 1739 1754 1764 1774 1785 1795 1800 1806 1806 1806 1806 1800 1800 1795 1795 1790 1785 1790 1790 1790 1795 1806 1811 1822 1833 1838 1849 1855 1866 1872 1883 1895 1907 1919 1925 1937 1943 1949 1956 1962 1968 1968 1975 1981 1981 1981 1987 1994 1994 2000 2007 2014 2020 2034 2040 2047 2054 2061 2068 2082 2089 2089 2096 2103 2103 2111 2111 2118 2118 2111 2118 2118 2118 2125 2125 2133 2133 2140 2148 2155 2163 2171 2178 2178 2178 2186 2186 2186 2194 2202 2202 2210 2218 2218 2226 2226 2234 2242 2242 2250 2250 2259 2259 2259 2259 2259 2259 2259 2250 2250 2250 2250 2250 2250 2259 2267 2267 2276 2284 2293 2301 2310 2319 2319 2327 2327 2336 2345 2345 2354 2363 2382 2400 2410 2419 2429 2448 2458 2478 2488 2488 2498 2498 2498 2498 2488 2488 2488 2478 2478 2478 2468 2478 2488 2488 2498 2509 2509 2529 2550 2561 2561 2583 2594 2594 2605 2627 2638 2650 2661 2673 2685 2697 2697 2697 2685 2673 2685 2697 2708 2721 2745 2782 2821 2874 2901 2915 2943 2957 2971 2971 2971 2971 2971 2957 2943 2943 2943 2943 2929 2929 2915 2901 2887 2887 2874 2874 2874 2874 2860 2860 2874 2874 2874 2874 2874 2874 2874 2874 2874 2874 2860 2860 2847 2834 2821 2808 2782 2745 2708 2673 2650 2627 2605 2594 2572 2583 2594 2605 2616 2638 2661 2685 2708 2733 2757 2770 2782 2808 2821 2834 2847 2860 2887 2901 2915 2943 2957 2971 2986 3001 3015 3015 3015 3030 3045 3061 3061 3076 3076 3091 3107 3123 3139 3155 3155 3155 3172 3155 3155 3155 3139 3123 3107 3107 3107 3091 3091 3091 3091 3091 3107 3123 3123 3139 3139 3155 3172 3188 3205 3222 3239 3239 3273 3273 3291 3309 3309 3309 3309 3309 3309 3291 3273 3256 3239 3222 3188 3172 3155 3139 3123 3123 3139 3139 3123 3139 3139 3139 3139 3139 3155 3139 3139 3139 3123 3107 3091 3076 3061 3030 3030 3015 3001 2986 2971 2971 2971 2957 2957 2957 2957 2957 2957 2943 2957 2957 2957 2943 2943 2957 2957 2957 2957 2957 2957 2957 2957 2943 2943 2943 2943 2943 2943 2943 2943 2929 2929 2915 2901 2901 2901 2901 2901 2901 2901 2901 2901 2901 2915 2915 2915 2915 2929 2929 2943 2943 2943 2957 2957 2971 2971 2986 2986 3001 3001 3015 3015 3015 3030 3015 3015 3001 2986 2986 2971 2957 2943 2929 2929 2915 2901 2901 2901 2887 2887 2901 2901 2915 2915 2915 2915 2915 2929 2929 2929 2929 2929 2929 2929 2929 2943 2943 2943 2943 2943 2943 2957 2957 2957 2943 2929 2915 2915 2915 2901 2901 2887 2887 2874 2874 2874 2887 2887 2887 2887 2901 2901 2901 2901 2901 2915 2915 2915 2929 2929 2929 2929 2929 2943 2943 2943 2943 2943 2943 2929 2929 2915 2915 2915 2901 2887 2860 2847 2834 2821 2808 2808 2795 2782 2782 2795 2795 2808 2808 2808 2808 2808 2808 2808 2808 2795 2795 2795 2795 2795 2795 2795 2782 2782 2782 2795 2795 2795 2808 2808 2808 2808 2808 2808 2808 2808 2808 2808 2808 2795 2795 2795 2795 2795 2782 2782 2782 2770 2770 2770 2757 2757 2757 2770 2770 2770 2770 2770 2770 2770 2770 2770 2770 2782 2795 2795 2795 2808 2808 2821 2821 2834 2847 2847 2860 2860 2874 2874 2860 2860 2847 2847 2847 2834 2821
0 0 0 0 0 0 0 0 0 0 0 0 0 0 0 0 0 0 0 0 0 1619 1624 1624 1628 1628 1632 1641 1645 1645 1650 1654 1659 1663 1668 1672 1677 1682 1691 1691 1696 1700 1700 1705 1700 1700 1700 1700 1700 1700 1705 1705 1705 1705 1710 1715 1724 1734 1744 1754 1764 1774 1785 1795 1800 1806 1811 1811 1806 1806 1806 1800 1795 1795 1795 1790 1790 1790 1795 1800 1806 1816 1822 1833 1838 1849 1855 1866 1878 1889 1895 1913 1925 1937 1943 1949 1956 1962 1968 1975 1975 1981 1981 1981 1987 1994 1994 2000 2007 2014 2020 2027 2040 2047 2054 2061 2068 2082 2082 2089 2096 2096 2096 2103 2111 2111 2111 2118 2111 2111 2111 2111 2118 2125 2125 2133 2148 2148 2155 2163 2171 2178 2178 2186 2186 2194 2194 2202 2202 2202 2210 2210 2218 2218 2226 2226 2234 2242 2242 2250 2250 2259 2259 2259 2267 2259 2259 2259 2259 2259 2259 2259 2259 2259 2267 2276 2284 2284 2293 2301 2301 2310 2310 2310 2319 2327 2336 2336 2345 2354 2373 2400 2410 2429 2439 2448 2468 2488 2488 2488 2498 2498 2498 2498 2488 2488 2488 2488 2478 2478 2468 2468 2478 2488 2498 2498 2509 2519 2540 2550 2561 2572 2583 2594 2605 2616 2627 2638 2661 2673 2685 2685 2697 2685 2673 2673 2661 2685 2697 2708 2733 2770 2821 2860 2887 2915 2943 2957 2971 2971 2971 2971 2957 2943 2943 2929 2929 2929 2915 2915 2901 2887 2887 2874 2874 2874 2860 2860 2860 2860 2874 2874 2874 2860 2874 2874 2874 2860 2860 2860 2860 2860 2847 2847 2834 2834 2808 2782 2745 2697 2673 2638 2616 2583 2550 2550 2540 2561 2583 2594 2616 2627 2661 2697 2721 2745 2770 2782 2808 2821 2834 2847 2860 2874 2887 2901 2929 2943 2971 2971 2986 3001 3015 3015 3045 3061 3076 3076 3091 3107 3123 3139 3155 3172 3172 3155 3172 3155 3155 3139 3139 3123 3107 3091 3091 3091 3091 3091 3091 3091 3107 3123 3123 3139 3155 3172 3188 3205 3222 3239 3256 3273 3273 3291 3309 3309 3327 3327 3327 3309 3309 3291 3291 3256 3239 3222 3188 3188 3155 3155 3139 3139 3155 3155 3155 3155 3172 3172 3172 3172 3172 3172 3155 3155 3139 3123 3107 3091 3061 3045 3030 3015 2986 2986 2971 2971 2957 2971 2971 2971 2971 2971 2971 2971 2971 2971 2986 2986 2971 2986 2986 2986 2986 2986 2971 2971 2971 2971 2971 2971 2971 2957 2957 2957 2943 2943 2943 2929 2915 2915 2915 2915 2915 2915 2915 2915 2929 2929 2943 2943 2943 2943 2957 2957 2957 2971 2971 2986 2986 2986 2986 3001 3015 3015 3030 3045 3045 3045 3045 3045 3045 3030 3015 3001 2986 2971 2957 2943 2929 2929 2915 2915 2915 2901 2901 2915 2915 2915 2915 2915 2915 2929 2929 2929 2929 2929 2929 2929 2929 2929 2943 2957 2957 2971 2957 2971 2971 2971 2971 2971 2957 2943 2929 2929 2915 2901 2901 2887 2887 2887 2887 2887 2887 2901 2901 2915 2915 2915 2915 2929 2929 2943 2943 2943 2943 2943 2957 2957 2957 2957 2957 2957 2957 2957 2957 2943 2929 2929 2915 2915 2887 2874 2847 2834 2821 2808 2808 2795 2782 2782 2795 2795 2795 2795 2795 2808 2795 2795 2808 2795 2795 2795 2795 2795 2795 2795 2795 2795 2795 2808 2808 2808 2808 2821 2821 2821 2834 2834 2834 2821 2821 2821 2821 2821 2821 2821 2808 2808 2795 2795 2795 2782 2782 2782 2782 2770 2770 2770 2770 2770 2770 2770 2770 2770 2782 2782 2770 2782 2782 2795 2808 2808 2821 2821 2834 2834 2847 2860 2874 2874 2874 2874 2887 2887 2874 2860 2847 2847 2847 2834
0 0 0 0 0 0 0 0 0 0 0 0 0 0 0 0 0 0 0 0 0 1624 1624 1628 1628 1632 1637 1641 1645 1650 1654 1659 1663 1668 1672 1677 1682 1686 1691 1696 1696 1700 1705 1705 1705 1705 1705 1705 1705 1705 1710 1715 1715 1715 1724 1729 1739 1744 1754 1764 1774 1785 1790 1800 1806 1811 1811 1811 1811 1806 1806 1800 1795 1795 1795 1795 1790 1795 1800 1806 1811 1816 1822 1833 1838 1849 1855 1866 1883 1895 1907 1919 1931 1943 1956 1962 1962 1968 1975 1981 1981 1981 1981 1987 1987 1994 2000 2000 2007 2014 2020 2034 2040 2054 2061 2068 2075 2082 2089 2096 2096 2096 2103 2103 2103 2111 2111 2103 2103 2103 2103 2111 2118 2118 2125 2133 2140 2155 2155 2171 2171 2178 2186 2186 2186 2194 2194 2202 2202 2202 2210 2210 2210 2218 2218 2226 2234 2234 2242 2242 2250 2250 2259 2259 2267 2259 2259 2259 2259 2259 2267 2267 2267 2267 2276 2276 2284 2293 2293 2293 2301 2301 2301 2310 2310 2319 2319 2319 2327 2345 2363 2391 2410 2429 2439 2458 2478 2488 2488 2488 2488 2498 2498 2488 2488 2488 2478 2478 2478 2468 2468 2478 2478 2478 2488 2498 2509 2519 2529 2540 2550 2561 2572 2583 2594 2616 2627 2638 2650 2661 2685 2685 2685 2673 2661 2661 2661 2673 2685 2697 2721 2757 2808 2860 2887 2915 2929 2957 2971 2971 2971 2957 2957 2943 2929 2929 2915 2915 2901 2901 2887 2874 2874 2874 2860 2860 2860 2847 2847 2860 2860 2860 2860 2860 2860 2860 2860 2860 2860 2860 2860 2860 2860 2860 2860 2847 2834 2808 2782 2733 2697 2661 2627 2583 2550 2529 2519 2519 2540 2550 2561 2583 2616 2650 2673 2708 2733 2757 2782 2808 2821 2834 2847 2860 2874 2887 2915 2929 2943 2957 2971 2986 3001 3015 3030 3061 3076 3076 3091 3107 3123 3139 3155 3172 3155 3155 3155 3155 3139 3139 3107 3091 3076 3076 3076 3061 3061 3076 3076 3076 3091 3123 3123 3139 3155 3172 3188 3205 3222 3239 3256 3273 3291 3309 3327 3327 3327 3345 3345 3327 3309 3309 3291 3256 3239 3239 3205 3188 3172 3172 3172 3172 3172 3172 3172 3188 3188 3205 3205 3205 3205 3205 3188 3172 3155 3155 3123 3091 3076 3045 3030 3015 3001 2986 2986 2971 2971 2971 2971 2971 2986 2986 2986 2986 3001 3001 3001 3001 3015 3015 3015 3015 3015 3015 3001 3001 3001 2986 2986 2986 2986 2986 2971 2971 2957 2957 2957 2943 2943 2929 2929 2943 2943 2957 2957 2957 2971 2971 2971 2986 2986 2986 2986 2986 2986 2986 2986 3001 3001 3001 3015 3015 3030 3045 3045 3061 3061 3076 3076 3076 3061 3045 3030 3015 3015 2986 2971 2957 2943 2943 2929 2929 2915 2915 2915 2929 2929 2929 2929 2929 2929 2943 2943 2943 2929 2929 2929 2929 2929 2929 2943 2943 2971 2971 2986 2986 2986 3001 3001 2986 2971 2957 2957 2943 2929 2929 2915 2901 2901 2901 2901 2901 2901 2915 2915 2929 2929 2943 2943 2957 2957 2971 2971 2971 2971 2971 2971 2986 2986 2986 2986 2971 2971 2971 2957 2943 2943 2929 2915 2915 2901 2874 2860 2847 2821 2821 2808 2795 2782 2782 2795 2795 2782 2795 2795 2795 2795 2795 2795 2795 2795 2795 2795 2808 2795 2795 2795 2795 2808 2808 2821 2821 2821 2834 2834 2847 2847 2834 2834 2834 2834 2834 2834 2834 2821 2821 2821 2821 2808 2808 2795 2795 2795 2782 2782 2782 2782 2782 2782 2782 2782 2782 2782 2782 2782 2782 2782 2782 2795 2808 2808 2821 2821 2834 2847 2860 2860 2874 2874 2887 2887 2887 2887 2901 2887 2874 2860 2860 2860 2847
0 0 0 0 0 0 0 0 0 0 0 0 0 0 0 0 0 0 0 0 0 1624 1628 1628 1632 1632 1637 1641 1645 1654 1654 1659 1663 1668 1677 1682 1686 1686 1696 1696 1700 1705 1705 1705 1705 1705 1710 1705 1705 1710 1715 1719 1719 1729 1729 1739 1749 1759 1764 1774 1785 1790 1795 1806 1811 1811 1811 1811 1811 1806 1800 1800 1795 1795 1795 1790 1795 1795 1800 1806 1811 1816 1822 1833 1838 1849 1861 1878 1889 1901 1913 1925 1937 1949 1962 1968 1975 1975 1981 1981 1981 1987 1987 1987 1994 1994 2000 2007 2014 2020 2027 2034 2047 2054 2061 2068 2075 2082 2089 2096 2096 2103 2103 2103 2103 2111 2103 2103 2103 2103 2103 2111 2118 2118 2125 2133 2140 2155 2163 2171 2178 2186 2186 2194 2194 2194 2194 2202 2202 2202 2210 2202 2210 2210 2218 2218 2218 2226 2234 2234 2242 2250 2259 2259 2259 2267 2259 2259 2267 2267 2267 2267 2276 2276 2276 2284 2293 2293 2293 2293 2301 2293 2301 2301 2310 2310 2319 2319 2327 2345 2363 2391 2410 2419 2439 2468 2478 2488 2488 2498 2488 2498 2498 2488 2488 2478 2478 2478 2478 2468 2468 2468 2478 2478 2488 2498 2498 2509 2519 2529 2540 2550 2561 2572 2594 2605 2627 2638 2650 2661 2673 2685 2673 2661 2650 2650 2650 2661 2685 2697 2721 2757 2808 2847 2887 2915 2929 2957 2957 2971 2971 2957 2943 2929 2929 2915 2915 2901 2901 2887 2874 2860 2860 2860 2860 2847 2847 2847 2847 2847 2860 2847 2847 2847 2847 2860 2860 2860 2847 2847 2860 2860 2860 2860 2860 2874 2860 2847 2808 2770 2733 2697 2650 2605 2550 2519 2509 2498 2509 2509 2529 2540 2572 2605 2638 2673 2708 2733 2757 2782 2808 2821 2834 2847 2874 2887 2901 2915 2929 2957 2971 2986 3001 3015 3030 3061 3076 3091 3107 3123 3139 3155 3155 3172 3155 3155 3155 3139 3123 3107 3091 3061 3045 3045 3045 3045 3045 3045 3061 3061 3091 3107 3123 3139 3155 3172 3188 3205 3239 3256 3273 3273 3309 3309 3327 3345 3345 3345 3345 3345 3327 3309 3291 3273 3256 3239 3222 3205 3188 3188 3188 3188 3188 3205 3205 3205 3222 3222 3222 3222 3222 3222 3205 3205 3172 3155 3139 3107 3076 3045 3045 3030 3001 2986 2986 2971 2971 2971 2986 2986 3001 3015 3015 3030 3030 3030 3045 3045 3045 3045 3045 3030 3030 3030 3015 3015 3015 3015 3001 3001 3001 2986 2986 2986 2986 2971 2971 2957 2957 2957 2971 2971 2971 2986 2986 3001 3001 3001 3001 3015 3015 3015 3001 3001 3001 3001 3015 3015 3015 3015 3015 3030 3045 3045 3061 3076 3076 3076 3091 3076 3076 3061 3045 3030 3015 3015 2986 2971 2957 2943 2943 2929 2929 2929 2929 2943 2943 2943 2943 2943 2943 2943 2943 2943 2929 2929 2929 2929 2929 2929 2943 2957 2971 2986 2986 3001 3001 3015 3015 3001 3001 2986 2971 2971 2957 2943 2929 2929 2915 2915 2915 2915 2915 2929 2929 2943 2957 2957 2971 2986 2986 2986 3001 3001 3001 3001 3001 3001 3001 3001 3001 3001 2986 2986 2971 2957 2943 2943 2929 2929 2901 2874 2860 2847 2834 2821 2808 2795 2782 2782 2782 2795 2795 2782 2782 2795 2795 2795 2795 2795 2795 2795 2795 2808 2808 2808 2808 2808 2808 2808 2821 2834 2834 2847 2847 2847 2847 2847 2847 2847 2834 2834 2834 2834 2834 2834 2821 2821 2821 2808 2808 2808 2795 2795 2795 2782 2782 2782 2782 2782 2782 2795 2795 2795 2795 2795 2795 2795 2808 2821 2821 2834 2834 2847 2860 2860 2874 2887 2887 2887 2901 2901 2901 2901 2901 2887 2874 2860 2860 2847
0 0 0 0 0 0 0 0 0 0 0 0 0 0 0 0 0 0 0 0 0 1632 1632 1632 1637 1641 1641 1645 1650 1654 1659 1663 1668 1672 1677 1682 1686 1691 1691 1696 1700 1705 1705 1705 1705 1705 1710 1710 1710 1715 1719 1724 1729 1734 1744 1749 1759 1769 1779 1785 1790 1800 1806 1811 1811 1811 1811 1811 1806 1806 1800 1800 1800 1795 1795 1790 1795 1800 1806 1811 1816 1822 1827 1833 1844 1855 1866 1883 1895 1907 1925 1937 1949 1962 1968 1975 1981 1981 1987 1987 1987 1987 1987 1987 1994 1994 2000 2007 2014 2020 2027 2034 2047 2054 2061 2068 2082 2082 2089 2096 2096 2096 2096 2103 2103 2103 2103 2103 2096 2103 2103 2103 2111 2118 2125 2133 2140 2155 2155 2171 2178 2186 2186 2194 2194 2194 2194 2202 2202 2202 2202 2202 2202 2202 2210 2210 2210 2218 2226 2234 2242 2250 2250 2259 2259 2259 2267 2267 2267 2267 2276 2276 2276 2284 2284 2284 2293 2293 2301 2301 2301 2301 2301 2310 2310 2310 2319 2327 2327 2345 2363 2391 2419 2429 2439 2468 2478 2488 2488 2498 2488 2488 2488 2488 2478 2478 2478 2468 2468 2468 2468 2468 2478 2488 2488 2498 2498 2509 2509 2529 2540 2550 2550 2572 2583 2605 2616 2638 2650 2661 2673 2673 2673 2661 2650 2650 2650 2661 2673 2697 2721 2757 2795 2834 2874 2901 2915 2943 2957 2957 2957 2943 2943 2929 2915 2901 2901 2887 2887 2874 2860 2860 2860 2847 2847 2834 2834 2834 2834 2847 2847 2847 2847 2847 2847 2847 2847 2847 2847 2847 2860 2860 2860 2874 2874 2887 2887 2874 2847 2808 2770 2733 2685 2638 2583 2540 2509 2498 2488 2488 2488 2509 2529 2561 2594 2638 2673 2697 2733 2757 2782 2808 2821 2834 2860 2874 2901 2915 2929 2957 2971 2986 3015 3030 3045 3076 3091 3107 3123 3139 3155 3155 3172 3172 3155 3139 3139 3123 3107 3091 3061 3045 3030 3030 3015 3030 3015 3030 3030 3061 3076 3107 3123 3123 3155 3172 3188 3222 3239 3256 3256 3291 3291 3327 3327 3327 3345 3345 3345 3345 3327 3309 3291 3273 3273 3256 3239 3222 3205 3205 3205 3188 3205 3222 3222 3222 3239 3239 3239 3239 3239 3239 3222 3205 3188 3172 3139 3123 3091 3061 3045 3030 3015 3001 2986 2986 2986 2986 3001 3015 3015 3030 3030 3045 3045 3061 3061 3061 3061 3061 3061 3045 3045 3045 3030 3030 3030 3015 3015 3015 3001 3001 3001 3001 2986 2986 2986 2986 2986 2986 2986 3001 3001 3001 3015 3030 3030 3030 3030 3030 3030 3030 3015 3015 3015 3015 3015 3015 3015 3015 3015 3045 3045 3061 3076 3076 3076 3091 3091 3091 3076 3076 3061 3045 3030 3015 3001 2986 2971 2957 2957 2943 2943 2943 2943 2957 2957 2957 2957 2957 2957 2957 2957 2943 2943 2929 2929 2929 2929 2929 2943 2957 2971 2986 3001 3001 3001 3015 3015 3030 3015 3001 3001 2986 2971 2957 2943 2943 2929 2929 2929 2929 2929 2943 2943 2957 2971 2986 3001 3001 3001 3015 3015 3030 3030 3030 3030 3030 3015 3015 3015 3001 3001 2986 2971 2971 2957 2943 2929 2915 2901 2887 2860 2847 2834 2821 2808 2795 2782 2782 2782 2795 2795 2795 2782 2795 2795 2795 2795 2795 2795 2795 2795 2808 2808 2808 2808 2821 2821 2821 2834 2834 2847 2847 2847 2847 2847 2847 2847 2847 2834 2834 2834 2834 2834 2834 2834 2821 2821 2821 2808 2808 2808 2795 2795 2795 2795 2795 2795 2795 2795 2795 2795 2795 2795 2795 2808 2808 2821 2821 2834 2847 2847 2860 2860 2874 2887 2887 2901 2901 2915 2915 2915 2915 2901 2887 2874 2874 2860 2860
0 0 0 0 0 0 0 0 0 0 0 0 0 0 0 0 0 0 0 0 0 1632 1637 1637 1637 1641 1641 1645 1650 1650 1654 1659 1663 1668 1677 1677 1682 1686 1691 1696 1700 1700 1700 1705 1700 1705 1710 1710 1715 1719 1719 1729 1734 1744 1749 1759 1769 1779 1790 1795 1800 1806 1811 1811 1811 1811 1811 1811 1806 1806 1800 1800 1800 1800 1795 1795 1795 1800 1806 1811 1816 1822 1827 1833 1849 1861 1872 1889 1901 1919 1931 1949 1956 1968 1975 1987 1987 1987 1994 1994 1987 1994 1987 1987 1994 1994 2000 2000 2014 2020 2027 2034 2047 2054 2061 2075 2075 2082 2089 2089 2096 2096 2096 2103 2103 2103 2103 2103 2096 2103 2103 2111 2111 2118 2125 2125 2140 2148 2155 2171 2171 2178 2186 2194 2194 2194 2194 2202 2202 2202 2202 2202 2194 2202 2202 2202 2210 2218 2218 2226 2234 2242 2250 2259 2259 2259 2267 2267 2267 2276 2276 2276 2284 2284 2284 2293 2301 2301 2301 2310 2310 2310 2310 2310 2319 2319 2327 2327 2336 2363 2382 2400 2429 2439 2448 2468 2478 2488 2488 2488 2488 2488 2488 2488 2478 2478 2468 2468 2468 2468 2468 2468 2478 2488 2488 2498 2498 2509 2509 2519 2529 2540 2561 2572 2583 2605 2616 2638 2650 2661 2673 2661 2661 2650 2638 2650 2650 2661 2661 2697 2721 2757 2795 2834 2860 2887 2915 2943 2943 2957 2957 2943 2929 2915 2915 2901 2887 2887 2874 2860 2860 2847 2847 2847 2834 2834 2821 2821 2834 2834 2834 2834 2834 2834 2847 2847 2847 2847 2847 2847 2860 2860 2860 2874 2887 2901 2901 2901 2874 2834 2808 2782 2733 2673 2616 2572 2529 2509 2498 2488 2478 2478 2498 2519 2561 2594 2638 2673 2708 2745 2770 2795 2821 2834 2860 2874 2901 2929 2943 2957 2971 2986 3030 3030 3061 3076 3107 3123 3139 3155 3172 3172 3172 3172 3155 3139 3123 3107 3076 3061 3030 3015 2986 2986 2986 2986 2986 3001 3015 3030 3061 3091 3107 3139 3155 3172 3188 3205 3239 3239 3273 3273 3291 3309 3327 3327 3327 3345 3345 3345 3327 3309 3309 3291 3273 3256 3239 3239 3239 3222 3222 3222 3222 3239 3239 3239 3256 3256 3256 3256 3256 3239 3222 3222 3188 3172 3155 3123 3107 3076 3061 3045 3015 3015 3015 3001 3001 3015 3030 3045 3045 3061 3061 3076 3076 3091 3091 3091 3091 3091 3076 3061 3061 3061 3045 3045 3030 3030 3015 3015 3015 3015 3015 3001 3001 3001 3001 3001 3001 3001 3015 3030 3030 3045 3045 3061 3061 3061 3061 3061 3045 3045 3030 3030 3030 3015 3015 3030 3015 3015 3030 3030 3045 3061 3076 3076 3076 3091 3091 3091 3076 3076 3061 3045 3030 3030 3015 2986 2986 2971 2971 2957 2957 2957 2957 2971 2971 2971 2971 2971 2957 2957 2957 2943 2929 2929 2929 2929 2929 2929 2943 2957 2971 2986 3001 3015 3015 3030 3030 3030 3030 3015 3015 3001 2986 2986 2957 2957 2943 2943 2943 2943 2943 2957 2957 2971 2986 3001 3015 3015 3030 3030 3045 3045 3045 3045 3045 3045 3030 3030 3015 3015 3001 2986 2986 2971 2957 2943 2929 2915 2915 2887 2874 2860 2847 2834 2821 2808 2808 2795 2795 2808 2795 2795 2795 2795 2808 2808 2795 2808 2808 2808 2808 2821 2808 2821 2821 2821 2821 2821 2834 2834 2847 2847 2847 2847 2847 2847 2834 2834 2834 2834 2834 2834 2834 2834 2834 2834 2821 2821 2821 2821 2808 2808 2808 2808 2808 2808 2808 2808 2795 2795 2795 2808 2808 2808 2821 2821 2821 2834 2847 2847 2860 2860 2874 2887 2901 2901 2915 2915 2915 2915 2915 2915 2901 2887 2874 2874 2874 2860
0 0 0 0 0 0 0 0 0 0 0 0 0 0 0 0 0 0 0 0 0 0 1637 1637 1641 1641 1645 1645 1650 1650 1654 1659 1663 1663 1668 1672 1677 1682 1686 1691 1691 1696 1700 1700 1700 1705 1705 1710 1715 1719 1729 1734 1739 1749 1759 1764 1779 1785 1795 1800 1806 1806 1811 1811 1811 1811 1811 1806 1806 1800 1800 1800 1800 1795 1795 1800 1800 1800 1806 1811 1816 1822 1827 1838 1849 1866 1878 1895 1907 1925 1937 1956 1968 1975 1987 1994 1994 1994 1994 1994 1994 1994 1994 1987 1987 1994 1994 2000 2007 2014 2020 2034 2040 2054 2061 2068 2075 2075 2082 2089 2096 2089 2096 2096 2103 2103 2103 2103 2096 2096 2103 2111 2111 2118 2125 2125 2140 2148 2155 2163 2171 2178 2186 2186 2194 2194 2202 2202 2202 2202 2202 2194 2194 2194 2202 2194 2202 2210 2218 2226 2234 2242 2250 2250 2259 2259 2267 2267 2267 2276 2276 2284 2284 2293 2293 2301 2301 2310 2310 2319 2319 2310 2310 2319 2327 2327 2327 2336 2345 2363 2391 2410 2429 2448 2458 2468 2478 2488 2488 2488 2488 2488 2478 2478 2478 2468 2468 2468 2468 2468 2468 2468 2478 2488 2488 2498 2498 2509 2519 2519 2529 2540 2550 2572 2583 2605 2616 2638 2650 2661 2661 2661 2650 2638 2638 2638 2638 2650 2673 2697 2721 2757 2795 2834 2860 2887 2901 2915 2929 2943 2929 2915 2915 2901 2901 2887 2887 2874 2860 2860 2847 2847 2834 2834 2821 2821 2821 2821 2821 2821 2834 2834 2834 2834 2834 2847 2847 2847 2847 2847 2860 2860 2874 2874 2901 2901 2915 2915 2901 2874 2847 2821 2782 2733 2673 2616 2561 2529 2509 2488 2468 2468 2478 2498 2529 2561 2605 2638 2685 2721 2745 2782 2795 2834 2860 2887 2901 2929 2943 2957 2971 3001 3030 3045 3061 3091 3107 3123 3139 3155 3172 3155 3155 3155 3139 3107 3091 3076 3045 3030 3001 2971 2957 2957 2943 2943 2957 2957 2971 2986 3030 3045 3076 3107 3139 3155 3188 3205 3222 3239 3256 3273 3291 3309 3309 3327 3327 3327 3327 3327 3327 3309 3309 3291 3273 3273 3256 3239 3239 3239 3239 3239 3239 3239 3239 3256 3256 3256 3256 3256 3256 3256 3239 3222 3205 3188 3155 3139 3107 3091 3076 3061 3045 3045 3030 3030 3030 3045 3061 3061 3076 3076 3091 3091 3107 3107 3107 3107 3107 3107 3091 3076 3076 3061 3061 3045 3045 3030 3030 3030 3030 3015 3015 3015 3015 3015 3015 3015 3030 3030 3045 3061 3061 3076 3091 3091 3091 3076 3076 3061 3061 3045 3030 3030 3030 3030 3015 3015 3015 3015 3030 3030 3045 3061 3061 3076 3076 3091 3091 3091 3076 3076 3061 3061 3045 3045 3030 3015 3001 2986 2986 2986 2971 2971 2971 2986 2986 2986 2986 2986 2971 2971 2957 2957 2929 2929 2929 2929 2929 2929 2943 2957 2986 3001 3015 3015 3030 3045 3061 3045 3045 3030 3030 3015 3015 3001 2986 2971 2957 2957 2957 2957 2957 2957 2971 2986 3001 3015 3030 3045 3045 3061 3061 3061 3061 3061 3061 3061 3045 3045 3030 3015 3001 2986 2986 2957 2943 2943 2929 2915 2901 2887 2874 2860 2860 2847 2834 2834 2821 2821 2821 2821 2808 2808 2808 2821 2808 2808 2808 2821 2808 2821 2821 2821 2821 2834 2834 2834 2834 2821 2834 2847 2847 2847 2847 2847 2847 2834 2834 2834 2821 2821 2821 2821 2821 2821 2821 2821 2821 2821 2821 2821 2808 2808 2808 2808 2808 2808 2808 2808 2808 2795 2795 2808 2808 2821 2821 2821 2821 2847 2847 2847 2860 2874 2874 2887 2901 2901 2915 2915 2915 2915 2929 2915 2901 2887 2887 2887 2874 2860
0 0 0 0 0 0 0 0 0 0 0 0 0 0 0 0 0 0 0 0 0 0 1637 1641 1641 1641 1645 1645 1645 1645 1650 1650 1654 1659 1663 1668 1672 1677 1682 1686 1686 1691 1696 1696 1700 1705 1705 1710 1715 1719 1729 1734 1744 1749 1764 1769 1779 1790 1795 1800 1806 1806 1811 1811 1811 1806 1806 1800 1800 1800 1795 1795 1795 1795 1795 1800 1800 1806 1806 1811 1816 1822 1827 1838 1849 1866 1883 1895 1913 1931 1949 1962 1975 1981 1987 1994 2000 1994 2000 1994 1994 1994 1994 1987 1987 1994 1994 2000 2007 2007 2014 2027 2034 2047 2054 2061 2068 2075 2075 2082 2082 2089 2089 2096 2096 2096 2096 2096 2096 2096 2103 2111 2111 2118 2125 2125 2133 2140 2155 2155 2171 2171 2178 2186 2194 2194 2202 2202 2202 2202 2202 2194 2194 2194 2194 2194 2202 2202 2210 2218 2226 2234 2242 2250 2250 2259 2267 2267 2267 2276 2284 2284 2293 2293 2293 2301 2310 2310 2310 2319 2319 2319 2319 2319 2327 2336 2336 2345 2363 2373 2400 2419 2439 2448 2458 2468 2478 2478 2478 2478 2478 2478 2468 2468 2468 2468 2468 2458 2468 2468 2468 2468 2478 2488 2488 2498 2498 2509 2519 2529 2540 2550 2561 2572 2594 2616 2627 2638 2650 2661 2650 2650 2650 2638 2638 2650 2650 2661 2673 2697 2721 2757 2795 2821 2847 2874 2887 2901 2915 2915 2901 2901 2887 2887 2887 2874 2874 2860 2860 2847 2847 2834 2834 2821 2821 2808 2808 2808 2808 2821 2821 2834 2834 2834 2834 2847 2847 2847 2847 2860 2860 2874 2874 2887 2901 2915 2929 2929 2915 2901 2887 2860 2834 2782 2733 2673 2616 2572 2540 2519 2488 2478 2478 2478 2509 2529 2561 2605 2650 2685 2733 2757 2795 2821 2860 2874 2901 2915 2943 2957 2971 3001 3030 3045 3076 3091 3107 3139 3155 3172 3172 3172 3172 3155 3123 3091 3076 3045 3015 3001 2971 2943 2915 2915 2915 2915 2915 2915 2929 2957 2986 3015 3045 3091 3107 3139 3172 3188 3222 3239 3239 3273 3291 3291 3309 3309 3309 3327 3327 3309 3309 3309 3291 3291 3273 3273 3256 3256 3256 3256 3256 3256 3256 3256 3256 3256 3256 3256 3256 3256 3256 3239 3239 3222 3205 3188 3172 3155 3139 3107 3091 3076 3076 3061 3061 3061 3061 3076 3076 3091 3091 3107 3107 3107 3123 3123 3123 3123 3123 3123 3107 3091 3091 3076 3076 3061 3061 3045 3045 3045 3045 3030 3030 3030 3030 3030 3030 3030 3045 3045 3076 3076 3091 3107 3107 3107 3107 3091 3091 3076 3061 3045 3045 3030 3030 3030 3015 3015 3015 3015 3015 3030 3045 3045 3061 3076 3076 3091 3091 3091 3076 3076 3061 3045 3045 3045 3030 3030 3015 3015 3015 3001 3001 3001 3001 2986 3001 3001 3001 3001 2986 2971 2971 2957 2929 2929 2929 2929 2929 2929 2943 2971 2986 3001 3015 3030 3045 3061 3061 3061 3061 3045 3045 3030 3030 3015 3001 2986 2986 2971 2971 2971 2971 2971 2986 3001 3015 3030 3045 3061 3076 3076 3091 3091 3091 3076 3076 3076 3061 3045 3045 3030 3015 3001 2986 2957 2957 2943 2929 2915 2901 2901 2887 2874 2860 2860 2847 2847 2847 2834 2834 2834 2834 2834 2821 2834 2834 2834 2821 2821 2834 2834 2834 2834 2834 2834 2834 2834 2834 2834 2847 2847 2847 2847 2847 2847 2834 2834 2821 2821 2821 2821 2821 2821 2821 2821 2821 2821 2821 2821 2821 2821 2808 2808 2808 2808 2795 2795 2795 2795 2795 2782 2795 2795 2795 2808 2808 2821 2821 2834 2847 2847 2860 2860 2874 2887 2901 2901 2915 2915 2915 2915 2915 2915 2901 2887 2887 2887 2874 2860
0 0 0 0 0 0 0 0 0 0 0 0 0 0 0 0 0 0 0 0 0 0 1641 1641 1641 1641 1645 1645 1641 1645 1645 1645 1645 1650 1654 1659 1663 1668 1672 1677 1677 1682 1686 1691 1691 1700 1705 1710 1715 1719 1729 1734 1744 1754 1764 1774 1785 1790 1800 1800 1800 1806 1806 1806 1800 1800 1800 1795 1790 1790 1790 1790 1790 1795 1795 1795 1800 1806 1811 1816 1816 1822 1827 1844 1855 1872 1889 1901 1919 1937 1956 1968 1981 1987 1994 2000 2000 2000 2000 2000 1994 1994 1987 1987 1987 1994 1994 1994 2000 2007 2014 2020 2034 2040 2047 2054 2054 2061 2068 2075 2082 2082 2089 2089 2096 2089 2096 2096 2096 2103 2103 2103 2111 2118 2125 2125 2133 2140 2148 2155 2171 2171 2178 2186 2186 2194 2202 2202 2202 2202 2202 2194 2194 2194 2194 2194 2194 2202 2210 2218 2226 2234 2250 2250 2250 2259 2267 2267 2276 2276 2284 2284 2293 2293 2301 2301 2310 2310 2319 2327 2319 2319 2327 2327 2336 2336 2345 2354 2373 2382 2400 2419 2439 2448 2448 2458 2468 2468 2468 2468 2468 2468 2468 2458 2458 2458 2458 2458 2458 2458 2468 2468 2478 2478 2488 2498 2509 2509 2519 2529 2540 2550 2561 2583 2594 2605 2627 2638 2650 2650 2650 2638 2638 2638 2638 2650 2650 2661 2685 2708 2733 2770 2782 2821 2834 2860 2874 2887 2887 2887 2887 2874 2874 2874 2860 2860 2860 2847 2847 2847 2834 2834 2821 2808 2808 2808 2808 2808 2808 2808 2821 2821 2821 2821 2834 2834 2847 2847 2847 2860 2860 2874 2887 2901 2915 2929 2929 2943 2929 2929 2929 2901 2887 2847 2795 2745 2685 2638 2594 2550 2519 2488 2478 2478 2488 2509 2529 2572 2616 2661 2697 2745 2782 2821 2847 2887 2901 2915 2943 2957 2971 3001 3030 3045 3076 3091 3123 3155 3155 3172 3172 3172 3172 3139 3091 3076 3045 3015 2986 2957 2929 2901 2874 2874 2874 2874 2860 2874 2887 2915 2943 2971 3015 3061 3076 3107 3155 3172 3188 3222 3239 3256 3273 3273 3273 3291 3291 3291 3291 3309 3291 3291 3273 3273 3273 3273 3256 3256 3256 3256 3256 3256 3256 3256 3256 3256 3256 3256 3256 3256 3256 3256 3239 3222 3222 3205 3188 3172 3155 3139 3123 3107 3107 3091 3091 3091 3091 3091 3107 3107 3107 3123 3123 3139 3139 3139 3139 3139 3139 3139 3123 3123 3107 3091 3091 3076 3076 3061 3061 3061 3045 3045 3045 3045 3045 3045 3045 3061 3061 3076 3091 3091 3123 3123 3123 3123 3123 3107 3091 3076 3061 3045 3045 3030 3015 3015 3015 3015 3015 3015 3015 3030 3030 3045 3061 3061 3076 3076 3076 3076 3076 3076 3061 3061 3061 3061 3045 3045 3045 3030 3030 3030 3030 3015 3015 3001 3015 3015 3001 3001 3001 2986 2971 2957 2943 2929 2929 2929 2929 2943 2943 2971 2986 3015 3030 3045 3061 3076 3076 3076 3076 3076 3061 3061 3045 3030 3015 3001 3001 2986 2986 2986 2986 2986 3001 3015 3030 3045 3076 3076 3091 3107 3107 3107 3107 3107 3091 3091 3076 3061 3061 3030 3015 3001 2986 2971 2957 2943 2929 2915 2915 2901 2901 2887 2887 2874 2874 2874 2874 2860 2860 2860 2860 2847 2847 2847 2847 2834 2834 2834 2834 2834 2834 2834 2834 2834 2847 2847 2834 2834 2834 2847 2847 2847 2834 2834 2834 2821 2808 2808 2808 2808 2808 2808 2808 2821 2821 2821 2821 2821 2821 2808 2808 2808 2808 2795 2795 2795 2795 2782 2782 2782 2782 2782 2782 2795 2795 2808 2808 2821 2834 2834 2847 2860 2874 2874 2874 2887 2887 2901 2901 2901 2901 2901 2887 2887 2887 2874 2874 2874
0 0 0 0 0 0 0 0 0 0 0 0 0 0 0 0 0 0 0 0 0 0 1641 1641 1641 1641 1641 1641 1637 1637 1637 1641 1641 1641 1645 1650 1650 1654 1659 1663 1668 1677 1682 1686 1686 1696 1700 1705 1710 1715 1724 1729 1744 1749 1764 1769 1779 1785 1790 1795 1795 1800 1800 1795 1795 1795 1790 1790 1785 1785 1785 1785 1785 1790 1790 1795 1800 1806 1811 1816 1816 1822 1833 1844 1861 1878 1889 1913 1925 1943 1962 1975 1987 1994 2000 2000 2000 2000 2000 2000 2000 1994 1987 1987 1987 1987 1994 1994 2000 2007 2007 2014 2020 2034 2040 2047 2054 2054 2061 2068 2075 2075 2075 2082 2089 2089 2089 2096 2096 2096 2103 2111 2118 2118 2118 2125 2133 2140 2140 2155 2155 2163 2171 2178 2186 2194 2194 2202 2202 2202 2202 2194 2194 2194 2194 2194 2194 2202 2210 2218 2226 2234 2242 2250 2250 2259 2267 2267 2276 2276 2284 2293 2293 2293 2301 2301 2310 2319 2327 2327 2327 2327 2327 2327 2345 2345 2354 2363 2373 2391 2410 2429 2439 2448 2448 2458 2458 2458 2458 2458 2458 2458 2458 2458 2458 2458 2448 2448 2458 2458 2468 2468 2478 2488 2498 2498 2509 2519 2519 2529 2540 2550 2561 2583 2594 2605 2627 2638 2650 2650 2650 2638 2638 2638 2638 2650 2661 2673 2685 2708 2733 2770 2782 2808 2834 2847 2860 2860 2874 2874 2860 2860 2847 2847 2834 2847 2834 2834 2834 2834 2834 2834 2821 2808 2795 2795 2795 2795 2795 2808 2808 2821 2821 2821 2834 2834 2834 2847 2847 2860 2860 2874 2887 2901 2915 2943 2943 2957 2957 2957 2971 2957 2943 2915 2874 2821 2770 2708 2661 2605 2561 2519 2498 2488 2488 2498 2509 2540 2583 2616 2673 2721 2757 2795 2847 2887 2915 2929 2943 2957 2971 3001 3015 3045 3061 3091 3123 3139 3155 3172 3172 3155 3139 3107 3076 3045 3015 2986 2943 2915 2887 2860 2847 2834 2834 2834 2834 2834 2847 2874 2901 2929 2971 3015 3045 3091 3123 3155 3172 3205 3222 3239 3256 3256 3256 3273 3273 3291 3291 3291 3291 3273 3273 3273 3273 3256 3256 3256 3256 3239 3239 3239 3239 3239 3239 3239 3239 3239 3239 3239 3239 3239 3239 3222 3222 3205 3205 3188 3172 3155 3139 3139 3139 3139 3123 3123 3123 3139 3139 3139 3139 3155 3139 3155 3155 3155 3155 3139 3155 3139 3139 3123 3123 3107 3107 3091 3091 3076 3076 3076 3076 3061 3061 3061 3061 3061 3061 3076 3091 3091 3107 3123 3139 3139 3139 3139 3123 3123 3091 3091 3076 3045 3030 3030 3030 3015 3015 3015 3001 3001 3015 3030 3030 3045 3045 3061 3061 3061 3076 3061 3061 3061 3076 3061 3061 3076 3076 3076 3076 3061 3061 3061 3061 3045 3045 3030 3030 3030 3015 3015 2986 2986 2971 2957 2943 2929 2929 2929 2929 2943 2957 2971 3001 3015 3030 3061 3061 3091 3107 3091 3091 3091 3076 3061 3061 3045 3030 3015 3001 3001 3001 3001 3001 3001 3015 3030 3045 3061 3076 3091 3107 3123 3123 3123 3123 3123 3107 3107 3091 3076 3061 3045 3030 3001 2986 2971 2957 2943 2943 2915 2915 2915 2901 2901 2901 2901 2901 2901 2887 2887 2887 2887 2874 2874 2874 2860 2860 2860 2847 2847 2847 2847 2847 2847 2847 2847 2847 2847 2847 2847 2847 2834 2834 2834 2834 2834 2821 2821 2808 2808 2795 2795 2795 2795 2808 2808 2808 2821 2821 2821 2821 2808 2808 2808 2808 2795 2795 2795 2782 2782 2770 2770 2770 2770 2770 2782 2782 2795 2808 2808 2821 2834 2834 2847 2860 2860 2874 2874 2874 2887 2887 2887 2887 2887 2887 2887 2887 2874 2874 2874
0 0 0 0 0 0 0 0 0 0 0 0 0 0 0 0 0 0 0 0 0 0 1641 1641 1641 1641 1637 1637 1637 1637 1632 1632 1632 1637 1637 1641 1645 1650 1654 1659 1663 1672 1677 1682 1682 1691 1696 1700 1705 1715 1724 1729 1739 1744 1759 1764 1774 1779 1785 1790 1790 1790 1790 1790 1790 1785 1785 1779 1779 1779 1774 1779 1779 1785 1790 1795 1800 1806 1816 1822 1822 1827 1838 1849 1866 1883 1901 1913 1931 1949 1968 1981 1994 1994 2000 2007 2007 2000 2007 2000 2000 1994 1987 1987 1987 1987 1987 1994 1994 2000 2007 2014 2020 2027 2034 2040 2040 2047 2054 2054 2061 2061 2068 2075 2075 2082 2082 2089 2089 2096 2096 2103 2111 2118 2118 2118 2125 2133 2140 2140 2148 2155 2163 2171 2178 2186 2194 2202 2202 2202 2202 2194 2194 2194 2194 2194 2194 2202 2210 2218 2226 2234 2250 2250 2259 2259 2267 2267 2276 2276 2284 2284 2293 2293 2301 2301 2310 2319 2319 2327 2327 2327 2327 2336 2345 2345 2354 2373 2382 2391 2410 2419 2439 2439 2439 2448 2448 2448 2448 2448 2439 2439 2439 2439 2439 2439 2439 2448 2448 2458 2468 2468 2478 2488 2498 2498 2509 2519 2529 2540 2550 2561 2572 2583 2594 2616 2627 2638 2650 2638 2638 2638 2638 2638 2650 2650 2661 2673 2697 2721 2745 2770 2782 2808 2821 2847 2847 2847 2847 2847 2834 2821 2821 2808 2808 2821 2821 2821 2821 2821 2821 2821 2808 2795 2795 2795 2795 2795 2795 2795 2795 2808 2821 2821 2834 2834 2834 2847 2847 2860 2860 2874 2887 2915 2929 2943 2971 2971 2971 3001 3001 2986 2986 2957 2929 2887 2834 2782 2721 2673 2616 2561 2519 2498 2488 2488 2488 2509 2540 2583 2627 2685 2733 2782 2821 2874 2901 2929 2943 2957 2971 2986 3015 3030 3061 3076 3107 3123 3123 3155 3139 3139 3107 3076 3030 3001 2971 2943 2887 2874 2847 2821 2808 2795 2795 2795 2782 2795 2808 2834 2860 2887 2929 2971 3015 3045 3091 3139 3155 3188 3205 3222 3239 3239 3256 3256 3273 3273 3273 3273 3273 3273 3273 3273 3256 3256 3239 3239 3239 3239 3239 3239 3222 3222 3222 3222 3222 3222 3222 3222 3222 3239 3239 3222 3222 3222 3205 3205 3205 3188 3172 3172 3155 3155 3155 3155 3172 3172 3172 3172 3172 3172 3172 3172 3172 3155 3155 3155 3155 3155 3139 3139 3139 3123 3123 3107 3107 3091 3091 3091 3091 3091 3076 3076 3076 3091 3091 3091 3107 3123 3123 3139 3155 3155 3155 3139 3139 3123 3107 3091 3061 3045 3030 3015 3030 3015 3001 3001 3001 3015 3015 3015 3030 3030 3045 3061 3061 3061 3076 3076 3061 3061 3076 3076 3076 3091 3091 3091 3107 3107 3091 3091 3091 3076 3061 3045 3045 3030 3030 3015 3001 2986 2971 2957 2943 2943 2929 2929 2943 2957 2957 2986 3001 3030 3045 3061 3076 3107 3107 3123 3107 3107 3091 3076 3076 3061 3045 3015 3015 3015 3015 3015 3015 3015 3015 3045 3061 3076 3091 3107 3107 3123 3139 3123 3123 3123 3107 3091 3091 3076 3061 3045 3030 3001 2986 2971 2957 2943 2929 2929 2915 2915 2915 2901 2901 2901 2901 2901 2901 2901 2901 2887 2887 2887 2874 2874 2874 2874 2860 2860 2860 2860 2860 2860 2847 2847 2847 2847 2847 2847 2847 2847 2834 2834 2834 2834 2821 2808 2808 2795 2795 2795 2795 2795 2795 2808 2808 2808 2808 2808 2808 2808 2808 2808 2795 2795 2795 2782 2770 2770 2770 2757 2757 2757 2757 2770 2770 2782 2795 2795 2808 2821 2834 2834 2847 2860 2860 2874 2874 2874 2887 2887 2887 2887 2887 2887 2887 2887 2887 2887
0 0 0 0 0 0 0 0 0 0 0 0 0 0 0 0 0 0 0 0 0 0 1637 1637 1637 1637 1637 1632 1632 1628 1628 1628 1628 1632 1632 1637 1641 1645 1650 1654 1659 1668 1672 1677 1682 1686 1691 1696 1700 1710 1715 1719 1734 1739 1749 1759 1764 1774 1774 1779 1779 1785 1785 1779 1779 1779 1774 1769 1769 1769 1769 1769 1774 1785 1790 1795 1800 1811 1816 1822 1827 1833 1838 1855 1872 1883 1907 1919 1943 1956 1975 1987 1994 2000 2007 2007 2007 2007 2007 2000 2000 1994 1994 1987 1987 1987 1987 1994 1994 2000 2007 2014 2014 2020 2027 2034 2034 2034 2040 2047 2047 2054 2061 2068 2068 2075 2082 2082 2089 2089 2096 2103 2111 2111 2118 2118 2125 2125 2133 2140 2148 2148 2155 2163 2171 2178 2186 2194 2194 2194 2194 2194 2194 2194 2194 2194 2194 2202 2210 2218 2226 2242 2250 2250 2259 2259 2267 2267 2267 2276 2284 2284 2293 2293 2293 2301 2310 2310 2319 2319 2327 2327 2327 2327 2336 2354 2363 2373 2382 2391 2410 2419 2439 2429 2439 2439 2439 2439 2439 2439 2439 2429 2429 2429 2429 2429 2429 2439 2439 2448 2458 2468 2478 2488 2498 2498 2509 2519 2529 2540 2550 2561 2572 2583 2594 2616 2627 2638 2650 2638 2638 2638 2638 2650 2661 2673 2685 2685 2721 2733 2757 2782 2795 2808 2821 2834 2834 2834 2821 2821 2808 2795 2795 2795 2795 2795 2808 2808 2808 2808 2808 2821 2795 2795 2795 2782 2782 2782 2795 2795 2795 2808 2821 2821 2834 2834 2834 2847 2847 2860 2860 2874 2887 2915 2929 2957 2971 2986 3001 3015 3015 3030 3015 3001 2986 2929 2887 2834 2782 2721 2661 2605 2561 2519 2498 2488 2478 2488 2509 2550 2594 2650 2708 2757 2808 2847 2887 2929 2943 2957 2971 2986 3001 3015 3045 3061 3091 3107 3123 3123 3123 3107 3076 3045 3015 2971 2929 2901 2860 2834 2821 2795 2782 2770 2770 2757 2757 2770 2782 2795 2821 2847 2887 2929 2971 3015 3061 3091 3123 3172 3188 3205 3222 3222 3239 3256 3256 3256 3256 3256 3256 3256 3256 3256 3256 3239 3239 3239 3239 3222 3222 3222 3205 3205 3205 3205 3205 3222 3222 3222 3222 3222 3239 3239 3239 3222 3239 3222 3222 3205 3205 3205 3205 3205 3205 3205 3188 3188 3205 3205 3188 3205 3188 3188 3188 3188 3188 3172 3172 3172 3172 3155 3155 3139 3139 3139 3123 3123 3107 3107 3107 3091 3091 3091 3091 3091 3091 3107 3123 3123 3139 3155 3155 3155 3155 3155 3139 3139 3107 3091 3076 3045 3045 3030 3030 3015 3015 3015 3015 3015 3015 3015 3030 3030 3030 3045 3045 3045 3061 3061 3061 3076 3076 3091 3091 3107 3107 3123 3123 3139 3123 3123 3107 3091 3076 3061 3061 3045 3030 3015 3001 2986 2971 2971 2943 2943 2943 2943 2957 2971 2986 3001 3015 3045 3076 3091 3107 3123 3139 3139 3123 3123 3107 3107 3076 3061 3061 3030 3030 3015 3015 3030 3030 3030 3045 3045 3076 3076 3107 3107 3123 3123 3139 3139 3123 3123 3107 3091 3091 3076 3061 3045 3030 3015 3001 2971 2957 2943 2929 2929 2915 2915 2901 2901 2901 2901 2901 2901 2901 2901 2901 2901 2901 2887 2887 2887 2874 2874 2874 2860 2860 2860 2860 2860 2860 2847 2847 2847 2847 2847 2834 2834 2834 2834 2834 2821 2821 2808 2808 2795 2795 2795 2795 2795 2795 2795 2795 2808 2808 2808 2808 2808 2808 2808 2795 2795 2795 2782 2770 2770 2757 2757 2757 2757 2757 2757 2770 2770 2795 2795 2808 2821 2834 2834 2847 2860 2860 2874 2874 2874 2887 2887 2887 2887 2887 2887 2887 2887 2887 2887
0 0 0 0 0 0 0 0 0 0 0 0 0 0 0 0 0 0 0 0 0 1632 1632 1632 1632 1632 1632 1628 1628 1624 1624 1624 1624 1628 1632 1632 1637 1641 1645 1650 1654 1663 1668 1672 1677 1682 1686 1691 1696 1705 1710 1715 1724 1734 1739 1749 1754 1759 1764 1769 1769 1769 1774 1769 1769 1769 1764 1764 1759 1764 1764 1764 1774 1779 1785 1795 1800 1811 1816 1822 1827 1833 1844 1855 1872 1889 1907 1925 1943 1956 1975 1987 1994 2000 2000 2007 2007 2007 2007 2000 2000 1994 1994 1994 1987 1987 1987 1994 1994 2000 2007 2007 2014 2020 2020 2027 2027 2027 2034 2034 2034 2040 2047 2047 2054 2068 2075 2075 2082 2089 2089 2103 2103 2111 2111 2118 2118 2125 2125 2133 2140 2140 2148 2155 2163 2171 2186 2194 2194 2194 2194 2194 2194 2194 2194 2194 2202 2202 2210 2218 2226 2242 2250 2250 2250 2259 2267 2267 2267 2276 2276 2284 2284 2293 2293 2301 2301 2301 2310 2319 2319 2319 2319 2327 2336 2354 2363 2373 2382 2391 2410 2419 2429 2429 2429 2419 2419 2419 2419 2419 2419 2419 2410 2419 2419 2419 2429 2429 2439 2448 2458 2468 2478 2488 2498 2509 2509 2519 2529 2540 2561 2572 2583 2594 2605 2616 2627 2638 2638 2650 2638 2650 2650 2661 2673 2673 2685 2708 2733 2745 2757 2782 2795 2821 2821 2834 2821 2808 2795 2795 2782 2770 2757 2757 2770 2782 2782 2795 2795 2808 2808 2808 2795 2795 2782 2782 2782 2782 2782 2795 2795 2808 2808 2821 2821 2834 2834 2847 2847 2860 2874 2874 2887 2915 2943 2957 2986 3001 3030 3045 3045 3045 3061 3045 3030 2986 2943 2887 2847 2782 0 2650 2605 2550 2519 2498 2478 2478 2498 2519 2561 2616 2661 2721 2782 2834 2874 2915 2929 2957 2971 2971 2986 3015 3030 3045 3061 3091 3107 3107 3091 3076 3045 3015 2971 2943 2901 2860 2821 2808 2782 2770 2757 2757 2745 2733 2733 2745 2745 2770 2782 2808 2834 2874 2915 2957 3015 3061 3091 3139 3155 3188 3205 3205 3222 3239 3239 3256 3256 3256 3256 3256 3256 3256 3239 3239 3239 3222 3222 3222 3205 3205 3205 3188 3188 3188 3205 3205 3205 3205 3222 3222 3239 3239 3239 3239 3239 3239 3239 3239 3239 3222 3222 3222 3222 3222 3222 3222 3222 3222 3205 3205 3205 3205 3205 3205 3188 3188 3188 3188 3188 3188 3172 3155 3155 3155 3139 3139 3139 3123 3107 3107 3107 3107 3107 3107 3107 3107 3123 3123 3139 3155 3155 3155 3155 3155 3155 3139 3123 3107 3091 3061 3061 3045 3045 3030 3015 3015 3015 3015 3015 3015 3030 3030 3045 3045 3045 3045 3061 3061 3061 3076 3091 3091 3107 3123 3139 3155 3155 3155 3155 3155 3139 3123 3107 3076 3076 3061 3030 3015 3001 2986 2986 2971 2957 2957 2957 2957 2971 2986 3001 3030 3045 3076 3091 3107 3139 3155 3155 3155 3155 3139 3123 3107 3091 3076 3061 3045 3045 3030 3045 3045 3045 3045 3061 3076 3091 3091 3107 3123 3123 3139 3139 3123 3123 3123 3107 3107 3091 3076 3061 3045 3030 3015 2986 2971 2957 2943 2943 2929 2915 2915 2901 2901 2901 2901 2901 2901 2901 2901 2901 2901 2901 2887 2887 2887 2887 2874 2874 2860 2860 2860 2860 2860 2860 2847 2847 2847 2847 2847 2847 2834 2834 2834 2834 2834 2821 2808 2808 2795 2795 2795 2795 2795 2795 2795 2795 2795 2795 2795 2795 2795 2808 2808 2795 2795 2795 2782 2770 2770 2757 2757 2757 2757 2757 2757 2770 2770 2782 2795 2795 2808 2821 2834 2834 2847 2860 2860 2874 2874 2887 2887 2887 2887 2887 2901 2901 2901 2901 2901
0 0 0 0 0 0 0 0 0 0 0 0 0 0 0 0 0 0 0 0 0 1632 1632 1632 1628 1628 1628 1624 1624 1624 1624 1624 1624 1628 1628 1632 1637 1641 1645 1650 1654 1663 1668 1672 1677 1682 1682 1686 1691 1696 1705 1710 1715 1724 1729 1739 1744 1749 1754 1759 1759 1759 1759 1759 1764 1759 1759 1759 1754 1759 1759 1764 1769 1779 1785 1795 1806 1811 1822 1822 1827 1833 1844 1855 1872 1889 1907 1925 1943 1956 1975 1987 1994 2000 2000 2007 2007 2007 2007 2000 2000 2000 1994 1994 1994 1994 1994 1994 1994 2000 2000 2007 2007 2014 2020 2020 2020 2020 2027 2027 2027 2034 2034 2040 2047 2054 2068 2068 2075 2082 2089 2096 2103 2111 2111 2118 2118 2118 2125 2133 2140 2140 2148 2155 2163 2171 2178 2186 2194 2194 2194 2194 2194 2194 2194 2194 2202 2210 2218 2226 2234 2242 2250 2250 2250 2259 2267 2267 2267 2276 2276 2276 2284 2284 2293 2293 2301 2301 2310 2319 2319 2319 2319 2319 2336 2345 2363 2363 2373 2391 2400 2410 2419 2419 2419 2410 2410 2410 2410 2410 2410 2400 2410 2410 2410 2410 2419 2429 2439 2448 2458 2468 2478 2488 2498 2509 2519 2529 2540 2550 2561 2572 2583 2594 2605 2616 2627 2638 2638 2650 2638 2650 2661 2661 2673 2685 2697 2721 2733 2745 2770 2782 2808 2808 2821 2821 2808 2795 2782 2770 2757 2745 2745 2745 2745 2770 2770 2782 2782 2795 2795 2795 2795 2782 2782 2782 2782 2782 2782 2795 2795 2808 2808 2821 2821 2834 2834 2834 2847 2860 2874 2887 2901 2915 2943 2971 3001 3015 3030 3061 3076 3076 3076 3061 3045 3015 2986 2943 2887 2834 2770 2708 2650 2594 2550 2519 2498 2488 2488 2509 2529 2583 2627 2685 2745 2795 2847 2887 2915 2943 2957 2971 2986 2986 3015 3030 3045 3061 3061 3076 3076 3045 3030 2986 2943 2901 2860 2834 2795 2770 2745 2733 2733 2721 2708 2721 2708 2708 2721 2721 2745 2757 2782 2834 2874 2915 2971 3015 3061 3107 3139 3172 3188 3205 3205 3222 3239 3239 3239 3256 3256 3239 3239 3239 3222 3222 3205 3205 3205 3188 3188 3188 3172 3172 3172 3172 3172 3188 3205 3205 3205 3222 3239 3239 3239 3256 3239 3239 3256 3256 3256 3239 3239 3239 3239 3239 3239 3239 3239 3239 3239 3239 3239 3239 3239 3222 3205 3205 3205 3205 3205 3205 3205 3188 3188 3172 3172 3155 3139 3139 3139 3123 3123 3107 3107 3107 3107 3123 3123 3123 3139 3155 3155 3155 3155 3155 3155 3139 3123 3107 3091 3091 3076 3061 3061 3045 3045 3030 3030 3030 3030 3030 3030 3030 3030 3030 3045 3030 3045 3045 3061 3091 3091 3107 3123 3139 3155 3172 3172 3172 3172 3172 3155 3139 3123 3091 3091 3061 3045 3015 3015 3001 2986 2971 2971 2971 2971 2971 2986 3015 3030 3061 3076 3107 3123 3139 3155 3172 3188 3188 3172 3172 3139 3123 3107 3091 3076 3061 3061 3061 3061 3061 3076 3076 3076 3091 3107 3123 3139 3123 3123 3139 3139 3139 3123 3123 3107 3091 3076 3061 3061 3045 3030 3001 2986 2971 2957 2957 2943 2929 2915 2901 2901 2901 2901 2887 2887 2887 2887 2887 2887 2887 2887 2887 2887 2887 2887 2874 2874 2860 2860 2860 2860 2860 2860 2847 2847 2847 2847 2847 2847 2847 2847 2847 2834 2834 2834 2821 2808 2808 2808 2808 2795 2795 2795 2795 2795 2795 2795 2795 2795 2795 2808 2808 2795 2795 2795 2782 2782 2770 2770 2757 2757 2757 2757 2757 2757 2770 2782 2782 2795 2808 2808 2821 2834 2834 2847 2860 2860 2874 2887 2887 2887 2887 2901 2901 2901 2901 2901 2901
0 0 0 0 0 0 0 0 0 0 0 0 0 0 0 0 0 0 0 0 1624 1624 1624 1624 1624 1624 1624 1624 1624 1624 1624 1624 1624 1628 1628 1632 1637 1641 1645 1650 1654 1659 1663 1668 1672 1677 1682 1686 1691 1696 1700 1700 1710 1715 1719 1724 1729 1734 1739 1744 1749 1749 1749 1754 1754 1754 1749 1754 1754 1759 1759 1764 1774 1779 1790 1800 1806 1811 1822 1827 1827 1838 1849 1861 1872 1889 1913 1925 1943 1956 1975 1987 1994 2000 2007 2007 2007 2007 2007 2007 2007 2000 2000 1994 1994 1994 1994 1994 1994 2000 2000 2007 2007 2014 2014 2014 2014 2014 2014 2020 2020 2027 2027 2034 2040 2054 2061 2068 2068 2075 2082 2089 2096 2111 2111 2118 2118 2118 2125 2133 2140 2140 2140 2148 2155 2171 2178 2178 2186 2194 2186 2186 2194 2186 2194 2194 2202 2210 2218 2226 2234 2242 2242 2250 2250 2259 2267 2267 2267 2267 2276 2276 2284 2284 2284 2293 2301 2301 2310 2310 2310 2310 2319 2319 2327 2345 2354 2363 2373 2382 2391 2400 2410 2410 2400 2400 2400 2400 2391 2391 2391 2391 2391 2391 2400 2400 2410 2419 2439 2448 2458 2468 2478 2498 2498 2509 2519 2529 2540 2550 2561 2572 2583 2594 2605 2616 2638 2638 2638 2650 2650 2650 2661 2673 2673 2685 2708 2721 2745 2770 2770 2795 2808 2821 2821 2808 2795 2782 2770 2770 2745 2733 2733 2733 2733 2757 2757 2770 2770 2782 2795 2795 2782 2782 2782 2770 2770 2782 2782 2782 2795 2808 2808 2808 2821 2821 2834 2834 2847 2860 2874 2887 2901 2915 2943 2986 3001 3030 3045 3076 3076 3091 3091 3091 3061 3045 3015 2986 2929 2887 2834 2770 2708 2650 2594 2561 2519 2498 2488 2498 2519 2550 2594 2638 2697 2757 2808 2860 2901 2929 2943 2957 2971 2971 2986 3015 3015 3045 3045 3045 3030 3015 2986 2957 2915 2860 2834 2795 2757 2733 2708 2697 2697 2697 2697 2685 2685 2697 2697 2708 2708 2733 2757 2782 2834 2874 2929 2986 3015 3076 3123 3155 3172 3188 3205 3222 3222 3239 3239 3239 3239 3239 3239 3239 3222 3222 3205 3205 3188 3188 3172 3172 3172 3172 3172 3172 3172 3188 3188 3205 3205 3222 3222 3239 3239 3256 3256 3256 3256 3256 3256 3256 3256 3256 3256 3256 3256 3256 3256 3256 3256 3239 3256 3256 3256 3239 3239 3239 3239 3239 3239 3222 3222 3222 3205 3188 3188 3172 3155 3155 3139 3139 3123 3107 3107 3107 3107 3123 3123 3123 3123 3139 3155 3155 3155 3155 3139 3139 3123 3123 3107 3107 3091 3091 3076 3061 3045 3030 3030 3030 3015 3015 3015 3015 3015 3030 3030 3030 3045 3045 3061 3091 3091 3123 3139 3155 3172 3188 3205 3205 3188 3172 3172 3155 3139 3107 3091 3076 3045 3030 3015 3001 2986 2986 2971 2971 2986 3001 3015 3030 3061 3076 3107 3139 3155 3172 3188 3205 3205 3205 3205 3188 3155 3139 3123 3107 3091 3076 3076 3076 3076 3091 3091 3091 3107 3107 3123 3123 3139 3123 3139 3139 3139 3123 3123 3107 3107 3091 3076 3076 3061 3045 3030 3015 3001 2986 2971 2957 2943 2929 2915 2901 2887 2887 2887 2887 2874 2874 2874 2874 2887 2874 2887 2887 2887 2887 2874 2874 2874 2874 2860 2860 2860 2860 2860 2860 2860 2860 2860 2860 2847 2847 2847 2847 2847 2847 2834 2834 2834 2821 2821 2821 2821 2808 2795 2795 2795 2795 2795 2795 2795 2795 2808 2808 2808 2795 2795 2795 2782 2782 2770 2770 2770 2757 2757 2757 2770 2770 2782 2782 2795 2795 2808 2821 2821 2834 2847 2860 2860 2874 2887 2887 2887 2901 2901 2901 2901 2915 2915 2915
0 0 0 0 0 0 0 0 0 0 0 0 0 0 0 0 0 0 0 0 1619 1619 1615 1619 1619 1619 1624 1619 1624 1624 1624 1624 1628 1628 1632 1632 1637 1641 1645 1650 1654 1659 1668 1668 1672 1677 1677 1682 1682 1686 1691 1696 1700 1705 1710 1715 1719 1724 1729 1734 1739 1744 1744 1744 1749 1749 1749 1749 1754 1754 1759 1764 1774 1785 1790 1800 1806 1811 1822 1827 1833 1838 1849 1861 1878 1895 1913 1925 1943 1956 1968 1981 1987 1994 2000 2000 2000 2007 2007 2007 2007 2007 2000 2000 2000 2000 2000 2000 2000 2000 2007 2007 2007 2014 2007 2007 2014 2014 2014 2014 2014 2020 2027 2034 2034 2047 2054 2061 2068 2075 2082 2089 2096 2111 2111 2118 2118 2118 2125 2133 2133 2140 2140 2148 2155 2163 2171 2171 2178 2186 2178 2186 2186 2186 2186 2194 2202 2210 2218 2226 2234 2234 2242 2250 2250 2250 2259 2259 2267 2267 2267 2276 2276 2284 2284 2293 2301 2301 2301 2310 2310 2310 2310 2319 2327 2336 2345 2354 2363 2373 2382 2391 2391 2391 2391 2391 2391 2391 2382 2382 2382 2382 2382 2391 2391 2400 2410 2419 2429 2448 2458 2478 2488 2498 2509 2509 2519 2529 2540 2550 2561 2572 2583 2594 2605 2627 2627 2638 2638 2650 2650 2650 2673 2685 2685 2697 2721 2733 2757 2770 2795 2795 2821 2821 2821 2808 2795 2782 2770 2757 2745 2733 2721 2733 2733 2745 2745 2757 2770 2782 2782 2782 2782 2782 2782 2770 2770 2782 2782 2782 2795 2808 2808 2808 2821 2821 2821 2834 2847 2860 2874 2887 2901 2929 2957 2986 3015 3030 3061 3076 3091 3091 3091 3091 3076 3061 3045 3001 2971 2929 2874 2821 2770 2708 2650 2594 2561 2519 2498 2498 2498 2529 2561 2605 2650 2708 2757 2808 2860 2887 2915 2943 2957 2957 2971 2986 3001 3001 3015 3015 3001 2986 2957 2929 2887 2847 2808 2770 2733 2708 2685 2685 2673 2673 2673 2661 2661 2673 2673 2685 2697 2708 2733 2757 2808 2847 2901 2957 3001 3061 3107 3139 3172 3188 3205 3222 3222 3222 3239 3239 3239 3239 3239 3222 3222 3205 3205 3188 3188 3172 3172 3172 3155 3155 3155 3155 3172 3172 3188 3188 3205 3222 3222 3239 3239 3256 3256 3256 3256 3256 3273 3273 3273 3273 3273 3273 3273 3273 3273 3273 3273 3273 3273 3273 3273 3273 3256 3256 3256 3256 3256 3239 3239 3222 3222 3205 3205 3188 3172 3172 3155 3139 3123 3123 3107 3107 3107 3107 3107 3123 3123 3123 3139 3139 3139 3139 3139 3139 3139 3139 3139 3123 3123 3107 3107 3091 3076 3061 3061 3045 3045 3030 3030 3030 3030 3030 3030 3030 3045 3045 3061 3091 3107 3123 3139 3172 3188 3205 3205 3205 3205 3188 3172 3155 3139 3107 3091 3076 3061 3030 3030 3015 3001 3001 2986 2986 3001 3015 3030 3061 3076 3107 3139 3172 3188 3205 3222 3222 3222 3222 3205 3205 3172 3155 3139 3123 3107 3107 3091 3091 3107 3123 3123 3123 3123 3123 3123 3139 3139 3139 3123 3123 3107 3107 3107 3091 3076 3076 3061 3045 3045 3030 3015 3001 2986 2971 2957 2943 2929 2915 2915 2901 2887 2887 2874 2874 2860 2860 2860 2860 2874 2874 2874 2874 2874 2874 2874 2874 2874 2874 2874 2874 2874 2860 2860 2860 2860 2860 2860 2860 2860 2847 2847 2860 2860 2860 2860 2847 2847 2847 2847 2821 2821 2821 2808 2808 2808 2808 2795 2795 2795 2795 2808 2808 2808 2808 2808 2795 2795 2795 2782 2782 2782 2782 2770 2770 2782 2782 2782 2782 2795 2795 2808 2821 2834 2834 2847 2860 2860 2874 2887 2887 2901 2901 2915 2915 2929 2929 2929 2929
0 0 0 0 0 0 0 0 0 0 0 0 0 0 0 0 0 0 0 0 1611 0 1615 1615 1611 1619 1619 1619 1624 1628 1628 1628 1628 1632 1637 1637 1641 1641 1650 1654 1654 1663 1663 1668 1668 1672 1677 1677 1677 1682 1682 1691 1696 1700 1700 1705 1710 1715 1719 1729 1729 1734 1739 1744 1749 1749 1749 1749 1754 1759 1764 1769 1774 1790 1795 1800 1806 1816 1822 1833 1838 1844 1855 1866 1878 1895 1913 1925 1943 1956 1968 1975 1987 1994 1994 2000 2000 2007 2007 2007 2007 2007 2007 2007 2000 2000 2000 2000 2007 2007 2007 2007 2007 2007 2007 2007 2007 2007 2007 2014 2014 2020 2020 2027 2034 2047 2054 2061 2061 2068 2082 2089 2096 2103 2111 2118 2118 2125 2125 2133 2133 2140 2140 2148 2155 2163 2171 2171 2178 2178 2178 2178 2178 2186 2186 2194 2202 2210 2218 2218 2226 2234 2242 2242 2242 2250 2250 2259 2259 2267 2267 2276 2276 2284 2284 2284 2293 2301 2301 2301 2310 2310 2310 2319 2327 2336 2345 2354 2363 2363 2373 2382 2382 2382 2382 2382 2373 2373 2373 2373 2373 2373 2373 2382 2391 2400 2410 2419 2439 2448 2468 2478 2488 2498 2509 2509 2519 2529 2540 2550 2572 2572 2583 2594 2616 2627 2627 2638 2650 2650 2650 2661 2673 2685 2697 2708 2733 2757 2770 2782 2795 2808 2821 2821 2821 2808 2795 2782 2770 2757 2745 2733 2721 2721 2733 2745 2745 2757 2757 2770 2782 2782 2782 2782 2770 2770 2782 2782 2782 2782 2795 2808 2808 2808 2821 2821 2821 2834 2847 2860 2874 2887 2915 2929 2957 2986 3015 3045 3061 3091 3091 3091 3091 3091 3076 3061 3045 3030 2986 2957 2915 2874 2808 2757 2697 2650 2594 2550 2519 2498 2498 2509 2529 2572 2605 2661 2708 2770 2821 2860 2887 2915 2929 2943 2957 2957 2971 2971 2971 2971 2971 2957 2929 2901 2860 2821 2795 2757 2721 2697 2673 2661 2650 2650 2650 2650 2650 2650 2661 2673 2673 2697 2708 2733 2782 2821 2874 2929 2986 3045 3091 3123 3155 3172 3188 3222 3222 3222 3222 3239 3239 3222 3239 3222 3222 3205 3188 3188 3172 3172 3172 3172 3155 3155 3155 3172 3172 3188 3188 3188 3205 3222 3222 3239 3239 3239 3239 3239 3256 3256 3256 3256 3273 3273 3273 3273 3291 3291 3291 3291 3291 3291 3291 3291 3291 3291 3291 3273 3273 3273 3256 3256 3256 3239 3222 3222 3205 3188 3172 3172 3155 3139 3123 3123 3123 3107 3107 3107 3107 3107 3107 3107 3123 3139 3139 3139 3139 3155 3155 3155 3155 3155 3155 3155 3139 3123 3107 3091 3091 3076 3061 3045 3045 3045 3030 3030 3030 3045 3045 3045 3076 3107 3123 3139 3155 3172 3205 3205 3222 3222 3205 3188 3188 3155 3139 3123 3091 3076 3045 3045 3030 3015 3015 3001 3001 3001 3015 3030 3045 3076 3107 3139 3172 3188 3222 3239 3239 3239 3239 3239 3222 3205 3188 3172 3155 3139 3123 3123 3107 3107 3123 3123 3139 3139 3139 3139 3123 3123 3123 3107 3107 3091 3091 3091 3076 3076 3061 3061 3045 3030 3030 3030 3015 3001 2986 2971 2957 2943 2929 2915 2915 2901 2887 2874 2860 2860 2847 2847 2847 2847 2860 2860 2860 2874 2874 2874 2874 2874 2874 2874 2874 2860 2860 2860 2860 2860 2860 2860 2860 2860 2847 2860 2860 2860 2860 2860 2860 2847 2847 2847 2847 2847 2847 2834 2821 2821 2821 2821 2808 2808 2795 2808 2808 2808 2808 2808 2808 2808 2808 2795 2795 2795 2795 2795 2782 2782 2782 2782 2782 2795 2795 2795 2808 2821 2834 2834 2847 2860 2874 2874 2887 2901 2901 2915 2915 2929 2929 2943 2943 2943
0 0 0 0 0 0 0 0 0 0 0 0 0 0 0 0 0 0 0 0 0 0 1611 1611 1611 1619 1619 1624 1624 1628 1632 1632 1637 1641 1641 1645 1645 1650 1654 1659 1663 1668 1668 1668 1672 1672 1672 1677 1677 1682 1682 1686 1691 1696 1696 1700 1700 1710 1715 1719 1724 1729 1739 1739 1744 1749 1754 1754 1759 1764 1769 1774 1785 1790 1800 1806 1816 1822 1827 1833 1838 1849 1861 1872 1883 1895 1913 1925 1937 1956 1962 1975 1981 1987 1994 2000 2000 2007 2007 2007 2007 2007 2007 2007 2007 2007 2007 2007 2007 2007 2007 2007 2007 2007 2007 2007 2007 2007 2007 2014 2014 2020 2020 2027 2034 2040 2047 2054 2061 2068 2082 2089 2096 2103 2111 2118 2118 2125 2125 2133 2133 2140 2140 2148 2155 2163 2163 2163 2171 2171 2171 2171 2171 2178 2186 2186 2194 2202 2210 2218 2226 2226 2234 2234 2242 2242 2242 2250 2250 2250 2259 2267 2276 2276 2276 2284 2293 2293 2301 2301 2310 2310 2310 2319 2327 2336 2345 2354 2363 2363 2373 2373 2373 2382 2373 2373 2373 2373 2373 2363 2363 2373 2373 2382 2391 2400 2410 2419 2439 2458 2468 2478 2488 2498 2509 2519 2529 2540 2550 2561 2572 2583 2583 2594 2616 2616 2627 2638 2650 2650 2661 2661 2685 2697 2708 2721 2745 2757 2782 2795 2808 2808 2821 2834 2821 2808 2795 2782 2770 2757 2745 2733 2721 2733 2733 2745 2745 2757 2757 2770 2770 2770 2770 2770 2770 2770 2782 2782 2782 2782 2795 2808 2808 2808 2808 2821 2821 2834 2847 2860 2874 2887 2915 2943 2971 3001 3030 3045 3076 3091 3091 3107 3091 3076 3061 3045 3030 3015 2986 2957 2929 2901 2847 2795 2745 2697 2650 2594 2550 2519 2498 2498 2509 2529 2561 2605 2661 2721 2770 2821 2860 2887 2901 2929 2929 2943 2943 2943 2943 2943 2943 2929 2901 2874 2834 2795 2770 2745 2708 2673 2661 2650 2638 2638 2638 2638 2638 2650 2650 2650 2661 2673 2697 2721 2770 2808 2860 2915 2971 3030 3076 3107 3155 3172 3188 3205 3222 3222 3222 3222 3222 3222 3239 3222 3222 3205 3205 3188 3188 3172 3172 3172 3172 3172 3172 3172 3188 3188 3205 3205 3205 3222 3222 3222 3239 3239 3239 3239 3239 3256 3256 3273 3273 3273 3273 3273 3291 3291 3291 3291 3309 3309 3309 3309 3309 3309 3309 3291 3291 3273 3273 3273 3256 3239 3239 3222 3205 3188 3188 3172 3155 3139 3139 3123 3123 3107 3107 3107 3107 3107 3107 3123 3123 3123 3139 3139 3155 3172 3172 3188 3188 3188 3188 3188 3188 3172 3139 3139 3123 3107 3091 3076 3076 3061 3061 3061 3045 3045 3045 3061 3091 3107 3123 3139 3172 3188 3205 3222 3222 3222 3205 3188 3172 3155 3139 3123 3091 3076 3061 3045 3030 3015 3015 3001 3001 3015 3015 3045 3061 3091 3123 3155 3188 3205 3222 3239 3256 3256 3239 3239 3239 3222 3205 3188 3172 3155 3139 3139 3139 3139 3139 3139 3139 3139 3139 3123 3123 3123 3107 3091 3091 3076 3076 3061 3061 3045 3045 3030 3030 3015 3015 3015 3001 3001 2986 2971 2957 2943 2929 2915 2915 2887 2874 2860 2860 2847 2847 2834 2847 2834 2847 2860 2860 2874 2874 2874 2874 2874 2874 2860 2860 2860 2860 2860 2860 2860 2860 2860 2860 2860 2860 2860 2860 2860 2860 2860 2860 2860 2860 2860 2860 2860 2847 2847 2834 2834 2834 2834 2821 2821 2821 2821 2821 2821 2821 2821 2821 2821 2821 2821 2821 2808 2808 2808 2808 2808 2808 2808 2808 2808 2808 2808 2821 2821 2834 2847 2860 2860 2874 2887 2887 2901 2915 2929 2929 2943 2943 2943 2943 2957
0 0 0 0 0 0 0 0 0 0 0 0 0 0 0 0 0 0 0 0 0 0 1607 1611 1611 1615 1619 1624 1628 1632 1637 1637 1641 1645 1650 1650 1654 1659 1659 1663 1668 1668 1672 1672 1672 1677 1677 1677 1677 1682 1682 1682 1686 1691 1691 1696 1696 1700 1710 1715 1719 1724 1734 1739 1749 1754 1759 1759 1769 1774 1779 1785 1790 1800 1806 1811 1822 1827 1833 1838 1849 1855 1866 1878 1889 1901 1913 1925 1937 1949 1962 1975 1975 1987 1994 1994 1994 2000 2000 2007 2007 2007 2007 2007 2007 2007 2007 2007 2014 2007 2007 2007 2007 2007 2007 2014 2007 2007 2007 2014 2014 2020 2027 2027 2034 2040 2047 2054 2061 2068 2082 2089 2103 2111 2111 2118 2125 2133 2133 2133 2133 2140 2140 2148 2155 2155 2155 2163 2163 2163 2171 2163 2171 2178 2178 2186 2194 2202 2210 2210 2218 2226 2226 2234 2234 2242 2242 2242 2250 2250 2250 2259 2267 2276 2276 2276 2284 2293 2301 2293 2301 2310 2310 2319 2327 2345 2354 2354 2363 2363 2373 2373 2373 2373 2373 2363 2363 2363 2363 2354 2363 2363 2373 2382 2391 2400 2410 2429 2439 2458 2468 2478 2488 2498 2509 2519 2529 2540 2550 2561 2572 2583 2583 2605 2616 2616 2627 2638 2650 2661 2661 2673 2685 2708 2721 2733 2757 2770 2782 2808 2808 2821 2821 2834 2821 2808 2795 2782 2770 2770 2745 2745 2733 2733 2733 2745 2757 2757 2757 2770 2770 2770 2770 2770 2770 2770 2782 2782 2782 2782 2795 2795 2808 2808 2808 2808 2821 2834 2847 2860 2874 2901 2929 2943 2971 3001 3030 3061 3076 3091 3091 3091 3091 3076 3061 3045 3030 3001 2986 2971 2943 2901 2874 2834 2782 2745 2685 2638 2583 2540 2509 2498 2498 2509 2529 2561 2605 2661 2721 2770 2808 2847 2874 2887 2901 2915 2915 2915 2915 2915 2915 2887 2874 2847 2808 2782 2757 2721 2697 2673 2650 2638 2627 2627 2616 2616 2627 2627 2638 2650 2650 2673 2697 2733 2770 2808 2860 2901 2957 3015 3061 3107 3139 3155 3188 3205 3222 3222 3222 3222 3222 3222 3239 3222 3222 3205 3205 3188 3188 3188 3188 3188 3188 3188 3205 3205 3205 3222 3222 3222 3222 3239 3239 3239 3239 3239 3239 3239 3239 3239 3239 3256 3256 3273 3273 3273 3291 3291 3291 3309 3327 3327 3327 3327 3327 3327 3309 3309 3309 3291 3273 3273 3256 3256 3239 3222 3205 3188 3188 3172 3172 3155 3139 3123 3123 3123 3123 3123 3123 3123 3123 3123 3139 3139 3139 3155 3172 3188 3205 3205 3222 3222 3222 3222 3222 3205 3188 3172 3155 3139 3123 3107 3107 3091 3091 3076 3076 3076 3076 3091 3091 3123 3139 3155 3172 3205 3205 3222 3222 3222 3205 3188 3172 3155 3139 3123 3107 3076 3061 3045 3030 3030 3030 3015 3015 3015 3030 3045 3076 3107 3139 3155 3188 3222 3239 3256 3256 3256 3256 3256 3239 3239 3222 3188 3188 3172 3155 3155 3139 3139 3139 3155 3139 3139 3123 3123 3107 3091 3091 3076 3061 3045 3045 3045 3030 3030 3015 3015 3015 3001 3001 3001 2986 2986 2971 2957 2957 2943 2929 2915 2901 2887 2874 2860 2847 2847 2834 2834 2834 2834 2847 2847 2860 2874 2874 2874 2874 2874 2874 2874 2860 2860 2860 2860 2860 2860 2860 2860 2860 2860 2860 2860 2860 2860 2874 2874 2874 2874 2874 2874 2874 2860 2860 2860 2860 2847 2847 2847 2834 2834 2834 2834 2834 2834 2834 2847 2847 2847 2847 2847 2847 2847 2834 2834 2834 2834 2821 2821 2821 2821 2821 2821 2821 2834 2834 2847 2860 2874 2887 2887 2901 2915 2915 2929 2943 2957 2957 2957 2957 2971
0 0 0 0 0 0 0 0 0 0 0 0 0 0 0 0 0 0 0 0 1602 1607 1611 1607 1615 1619 1624 1628 1632 1632 1637 1641 1645 1645 1650 1654 1659 1663 1663 1668 1668 1672 1672 1672 1672 1677 1677 1677 1677 1682 1677 1682 1682 1686 1686 1691 1691 1696 1705 1710 1715 1719 1729 1739 1744 1754 1759 1764 1769 1779 1785 1790 1795 1800 1811 1816 1822 1827 1838 1844 1849 1855 1866 1878 1889 1901 1913 1925 1937 1949 1956 1968 1975 1981 1987 1987 1994 2000 2000 2000 2000 2007 2007 2007 2007 2007 2007 2007 2007 2007 2007 2007 2007 2007 2007 2007 2007 2007 2007 2014 2014 2020 2020 2027 2034 2040 2047 2054 2061 2068 2082 2089 2103 2111 2118 2125 2125 2133 2140 2140 2140 2140 2148 2148 2155 2155 2155 2155 2155 2155 2155 2155 2155 2163 2171 2171 2186 2186 2202 2202 2210 2218 2226 2226 2234 2234 2234 2242 2242 2242 2250 2250 2259 2267 2267 2276 2284 2284 2293 2293 2301 2310 2319 2327 2336 2345 2354 2354 2363 2363 2363 2373 2373 2373 2363 2363 2354 2354 2354 2354 2354 2363 2373 2382 2391 2400 2410 2429 2448 2458 2468 2478 2488 2498 2509 2519 2529 2540 2550 2561 2572 2572 2583 2594 2605 2616 2627 2638 2650 2661 2673 2685 2697 2708 2733 2745 2757 2782 2782 2808 2808 2821 2821 2821 2821 2808 2795 2782 2782 2770 2757 2745 2745 2745 2745 2757 2757 2757 2757 2757 2757 2770 2770 2770 2770 2770 2770 2770 2782 2782 2795 2795 2795 2808 2808 2808 2821 2834 2834 2847 2874 2901 2929 2957 2986 3015 3045 3061 3076 3091 3091 3091 3076 3061 3045 3030 3015 2986 2971 2957 2943 2915 2901 2860 2821 2782 2733 2685 2616 2572 2529 2509 2488 2488 2509 2529 2561 2616 2661 2721 2757 2795 2834 2847 2860 2874 2887 2887 2887 2887 2874 2860 2847 2821 2795 2757 2733 2708 2685 2661 2638 2627 2616 2616 2616 2616 2616 2627 2638 2650 2661 2685 2708 2745 2782 2821 2860 2901 2957 3001 3061 3091 3139 3155 3188 3205 3222 3205 3222 3222 3222 3222 3222 3222 3222 3205 3205 3205 3205 3205 3205 3205 3205 3222 3222 3222 3239 3239 3239 3239 3239 3239 3239 3239 3239 3239 3222 3222 3239 3239 3239 3239 3256 3256 3273 3273 3291 3291 3309 3327 3327 3327 3327 3345 3345 3327 3327 3327 3309 3291 3273 3273 3256 3256 3239 3222 3205 3188 3188 3188 3172 3155 3139 3139 3139 3139 3139 3139 3139 3139 3139 3139 3155 3155 3172 3172 3188 3205 3222 3239 3256 3256 3256 3256 3239 3239 3222 3205 3188 3188 3155 3155 3139 3123 3123 3107 3107 3107 3091 3107 3123 3139 3155 3172 3188 3205 3205 3222 3222 3222 3205 3188 3172 3155 3123 3123 3091 3076 3061 3061 3045 3030 3030 3030 3015 3030 3045 3061 3076 3107 3155 3172 3205 3239 3239 3256 3256 3256 3273 3256 3256 3239 3222 3205 3205 3188 3188 3172 3155 3155 3155 3155 3139 3139 3123 3107 3091 3091 3076 3061 3045 3045 3030 3030 3015 3015 3001 3001 2986 2986 2986 2986 2986 2971 2971 2957 2943 2943 2929 2915 2915 2887 2874 2874 2860 2847 2847 2834 2834 2834 2847 2860 2860 2874 2874 2874 2887 2887 2874 2874 2874 2874 2860 2860 2860 2860 2860 2860 2860 2860 2860 2860 2860 2860 2860 2874 2874 2874 2874 2887 2887 2887 2874 2874 2874 2874 2874 2874 2860 2860 2860 2860 2860 2860 2860 2860 2860 2860 2860 2860 2860 2860 2860 2860 2860 2847 2847 2847 2847 2847 2847 2834 2834 2847 2847 2860 2860 2874 2887 2901 2915 2915 2929 2943 2943 2957 2971 2971 2971 2986
0 0 0 0 0 0 0 0 0 0 0 0 0 0 0 0 0 0 0 0 1602 1607 1611 1611 1611 1615 1624 1628 1632 1637 1641 1645 1650 1654 1659 1659 1663 1668 1668 1672 1672 1677 1677 1677 1677 1677 1677 1682 1677 1682 1682 1682 1682 1686 1686 1686 1691 1696 1700 1705 1715 1719 1729 1739 1744 1754 1764 1769 1774 1785 1790 1795 1800 1811 1816 1822 1827 1838 1844 1849 1855 1861 1872 1883 1889 1901 1913 1925 1931 1943 1956 1962 1968 1981 1981 1987 1987 1994 1994 2000 2000 2000 2000 2007 2007 2007 2007 2007 2007 2007 2007 2007 2000 2007 2007 2007 2007 2007 2007 2014 2020 2020 2027 2034 2040 2040 2047 2054 2061 2068 2082 2089 2103 2111 2118 2125 2125 2133 2140 2140 2140 2140 2148 2148 2148 2155 2148 2148 2148 2148 2155 2148 2148 2148 2155 2163 2171 2178 2186 2202 2202 2210 2218 2218 2226 2226 2234 2234 2242 2242 2242 2250 2250 2259 2267 2276 2276 2284 2293 2301 2301 2310 2319 2327 2336 2345 2354 2354 2363 2363 2363 2363 2363 2363 2354 2354 2354 2354 2354 2354 2354 2363 2373 2382 2391 2410 2419 2429 2448 2458 2468 2478 2488 2498 2509 2519 2529 2540 2550 2561 2561 2572 2583 2594 2594 2605 2616 2627 2638 2650 2661 2673 2697 2721 2733 2745 2757 2782 2782 2808 2808 2808 2808 2821 2808 2795 2795 2782 2782 2782 2770 2757 2757 2757 2757 2757 2757 2757 2757 2757 2757 2757 2770 2770 2757 2757 2770 2770 2782 2782 2795 2795 2795 2795 2808 2808 2821 2834 2834 2860 2874 2901 2929 2957 2986 3015 3045 3061 3076 3091 3076 3076 3061 3061 3045 3030 3001 2986 2971 2957 2943 2929 2915 2887 2860 2821 2782 2733 2673 2616 2561 2519 2498 2488 2488 2498 2529 2561 2616 2661 2721 2757 2782 2808 2821 2834 2847 2847 2847 2847 2834 2821 2821 2782 2770 2733 2721 2697 2685 2661 2638 2627 2616 2616 2616 2627 2627 2638 2661 2673 2685 2708 2733 2757 2795 2834 2874 2915 2957 3001 3045 3091 3123 3155 3172 3188 3205 3205 3222 3222 3222 3222 3222 3222 3222 3222 3222 3205 3222 3222 3239 3239 3256 3256 3256 3273 3273 3273 3273 3273 3273 3273 3273 3256 3256 3239 3222 3222 3222 3222 3222 3222 3239 3256 3273 3273 3291 3291 3309 3327 3327 3345 3345 3345 3345 3345 3327 3327 3309 3291 3273 3273 3273 3256 3239 3222 3205 3205 3188 3188 3172 3155 3155 3155 3155 3155 3155 3155 3155 3155 3155 3172 3172 3172 3188 3205 3205 3222 3256 3256 3273 3273 3291 3291 3273 3273 3256 3239 3239 3205 3205 3188 3172 3155 3139 3139 3139 3123 3123 3123 3139 3155 3172 3172 3205 3205 3222 3222 3222 3222 3205 3188 3172 3155 3139 3123 3107 3076 3076 3061 3045 3045 3030 3030 3030 3030 3045 3061 3091 3123 3139 3172 3205 3239 3239 3256 3256 3256 3256 3256 3239 3239 3222 3222 3205 3205 3188 3172 3172 3155 3155 3155 3139 3123 3123 3107 3076 3076 3061 3045 3030 3015 3015 3001 3001 2986 2986 2986 2986 2986 2971 2986 2986 2971 2971 2957 2957 2943 2943 2929 2915 2901 2887 2874 2874 2860 2847 2847 2847 2847 2860 2860 2874 2887 2887 2887 2887 2887 2887 2887 2887 2887 2874 2874 2874 2874 2874 2860 2860 2860 2860 2860 2874 2874 2874 2874 2887 2901 2901 2901 2901 2901 2901 2887 2887 2887 2887 2874 2874 2874 2874 2874 2874 2874 2874 2874 2887 2887 2887 2887 2887 2887 2887 2887 2887 2887 2887 2874 2874 2860 2860 2860 2860 2860 2860 2860 2874 2887 2887 2901 2915 2929 2943 2943 2957 2971 2971 2971 2986 2986
0 0 0 0 0 0 0 0 0 0 0 0 0 0 0 0 0 0 0 0 1598 1607 1607 1611 1615 1615 1624 1628 1632 1637 1641 1645 1650 1654 1659 1663 1668 1672 1672 1677 1682 1682 1686 1686 1686 1682 1686 1682 1682 1686 1682 1686 1686 1686 1686 1691 1691 1696 1700 1705 1710 1719 1729 1744 1749 1759 1769 1774 1785 1795 1800 1806 1811 1816 1822 1827 1833 1838 1844 1849 1855 1866 1872 1883 1895 1901 1913 1919 1931 1943 1949 1962 1968 1975 1981 1981 1987 1987 1994 1994 2000 2000 2000 2000 2007 2007 2007 2007 2007 2000 2007 2007 2000 2000 2007 2007 2007 2007 2007 2014 2020 2020 2027 2034 2040 2040 2047 2054 2061 2068 2075 2089 2096 2111 2118 2118 2125 2133 2140 2140 2140 2140 2148 2148 2148 2148 2148 2140 2140 2140 2140 2140 2140 2140 2148 2163 2171 2178 2186 2194 2202 2202 2210 2218 2218 2226 2226 2234 2234 2234 2242 2242 2250 2259 2267 2267 2276 2284 2293 2301 2310 2319 2319 2336 2345 2354 2354 2363 2363 2363 2363 2363 2363 2363 2354 2354 2354 2354 2354 2354 2354 2363 2373 2382 2391 2410 2419 2439 2448 2458 2468 2478 2488 2498 2509 2519 2529 2540 2550 2550 2561 2572 2572 2583 2583 2594 2605 2627 2638 2650 2661 2673 2697 2721 2745 2757 2770 2782 2782 2808 2808 2808 2808 2808 2808 2795 2795 2782 2782 2782 2770 2757 2757 2757 2757 2757 2757 2745 2757 2757 2757 2757 2757 2757 2757 2757 2757 2770 2770 2782 2782 2782 2795 2795 2808 2808 2821 2821 2847 2860 2887 2915 2929 2957 2986 3015 3045 3061 3076 3076 3076 3076 3061 3045 3030 3015 3001 2986 2957 2957 2943 2943 2929 2915 2887 2860 2834 2782 2733 2673 2605 2561 2519 2498 2488 2488 2498 2529 2572 2616 2661 2697 2745 2770 2782 2795 2808 2808 2808 2795 2795 2782 2770 2757 2733 2708 2697 2685 2673 2661 2650 2638 2627 2627 2638 2638 2650 2661 2685 2697 2721 2745 2770 2795 2834 2874 2915 2943 2986 3030 3076 3107 3139 3155 3188 3205 3205 3222 3222 3222 3222 3239 3222 3222 3239 3239 3239 3239 3239 3256 3273 3291 3291 3309 3309 3327 3327 3327 3327 3309 3309 3309 3291 3291 3256 3256 3239 3222 3222 3222 3222 3222 3239 3239 3256 3273 3309 3309 3327 3327 3345 3363 3363 3363 3363 3345 3345 3345 3309 3309 3273 3273 3273 3239 3239 3222 3205 3188 3188 3188 3188 3172 3172 3172 3172 3172 3188 3188 3188 3188 3188 3188 3205 3205 3222 3222 3239 3256 3273 3291 3291 3309 3309 3309 3309 3309 3291 3273 3256 3256 3239 3222 3205 3188 3188 3172 3172 3155 3155 3172 3172 3172 3188 3205 3205 3222 3222 3222 3222 3222 3205 3188 3172 3155 3139 3107 3107 3076 3061 3061 3045 3045 3045 3030 3030 3030 3045 3061 3091 3123 3139 3172 3205 3222 3239 3239 3239 3239 3256 3239 3239 3239 3222 3222 3205 3188 3188 3188 3172 3155 3139 3139 3139 3107 3107 3091 3061 3045 3045 3030 3015 3001 3001 2986 2986 2986 2986 2986 2971 2971 2971 2971 2971 2971 2971 2957 2957 2957 2943 2929 2929 2915 2901 2887 2887 2874 2860 2860 2874 2860 2874 2887 2887 2901 2901 2901 2901 2901 2901 2901 2901 2901 2901 2887 2887 2887 2874 2874 2874 2874 2874 2874 2874 2874 2887 2901 2901 2901 2915 2915 2915 2915 2915 2915 2915 2915 2901 2901 2901 2901 2901 2901 2901 2901 2901 2901 2901 2901 2915 2915 2915 2915 2915 2915 2915 2901 2901 2901 2901 2887 2887 2874 2874 2887 2887 2887 2887 2901 2901 2915 2929 2929 2943 2957 2957 2971 2986 2986 2986 3001
0 0 0 0 0 0 0 0 0 0 0 0 0 0 0 0 0 0 0 0 0 0 1611 1611 1615 1624 1624 1628 1632 1637 1641 1645 1645 1650 1654 1663 1663 1672 1677 1677 1686 1686 1691 1691 1686 1691 1686 1686 1686 1686 1686 1686 1686 1691 1686 1691 1696 1696 1705 1710 1715 1719 1734 1744 1754 1764 1769 1779 1790 1795 1806 1811 1816 1822 1827 1833 1838 1844 1844 1849 1855 1866 1872 1883 1889 1895 1907 1919 1925 1937 1949 1956 1962 1968 1975 1975 1981 1987 1987 1994 1994 1994 1994 2000 2000 2000 2007 2007 2000 2000 2000 2007 2000 2000 2007 2007 2007 2007 2007 2014 2020 2020 2027 2034 2040 2040 2047 2054 2054 2061 2075 2082 2089 2103 2111 2118 2125 2125 2133 2133 2133 2140 2140 2140 2140 2148 2140 2133 2133 2140 2133 2133 2133 2140 2148 2155 2171 2178 2186 2186 2194 2202 2202 2210 2218 2218 2218 2226 2226 2234 2234 2242 2250 2250 2259 2267 2276 2284 2293 2301 2310 2319 2327 2336 2354 2363 2363 2363 2363 2363 2363 2363 2363 2354 2354 2354 2354 2354 2354 2354 2354 2363 2382 2391 2400 2410 2419 2439 2448 2458 2468 2478 2478 2498 2509 2519 2519 2529 2540 2550 2550 2561 2572 2572 2583 2583 2594 2616 2627 2638 2661 2673 2697 2721 2745 2757 2770 2782 2782 2795 2795 2808 2795 2795 2795 2782 2782 2795 2782 2782 2782 2770 2757 2757 2757 2757 2757 2757 2757 2757 2757 2757 2757 2757 2757 2757 2757 2757 2757 2770 2770 2782 2782 2795 2795 2795 2808 2821 2847 2860 2887 2915 2943 2971 3001 3015 3045 3061 3061 3076 3076 3061 3061 3045 3030 3015 3001 2986 2971 2957 2943 2943 2943 2929 2915 2901 2874 2834 2782 2721 2661 2605 2550 2519 2498 2488 2488 2498 2529 2572 2616 2650 2685 2721 2745 2757 2770 2770 2770 2770 2757 2745 2733 2721 2708 2697 2685 2685 2673 2673 2661 2650 2650 2650 2661 2661 2673 2685 2708 2733 2757 2782 2821 2847 2887 2915 2943 2971 3015 3061 3091 3123 3155 3172 3188 3205 3222 3222 3222 3239 3239 3239 3239 3256 3256 3256 3273 3273 3291 3291 3309 3327 3345 3363 3363 3382 3382 3382 3382 3363 3363 3345 3327 3309 3291 3256 3256 3239 3222 3222 3222 3222 3222 3239 3256 3273 3309 3309 3327 3345 3363 3363 3363 3363 3363 3363 3363 3345 3327 3309 3291 3273 3273 3256 3239 3222 3205 3205 3205 3188 3188 3172 3172 3172 3188 3188 3205 3205 3205 3222 3222 3239 3239 3256 3256 3256 3273 3291 3309 3309 3327 3345 3345 3345 3345 3327 3327 3309 3309 3291 3273 3256 3239 3239 3222 3205 3205 3205 3205 3205 3205 3205 3205 3222 3222 3222 3222 3239 3239 3222 3205 3188 3172 3155 3139 3123 3107 3091 3076 3061 3045 3045 3045 3030 3030 3030 3045 3061 3076 3107 3139 3155 3172 3188 3222 3222 3239 3239 3239 3222 3222 3222 3222 3222 3205 3205 3188 3188 3172 3155 3139 3139 3123 3107 3091 3076 3061 3030 3030 3015 3001 2986 2986 2986 2971 2971 2986 2986 2971 2971 2971 2971 2986 2986 2971 2971 2957 2957 2957 2957 2943 2929 2915 2901 2901 2887 2887 2887 2887 2887 2887 2901 2915 2915 2915 2929 2929 2929 2929 2915 2915 2915 2915 2915 2901 2901 2901 2887 2887 2901 2887 2887 2901 2901 2915 2915 2915 2915 2929 2929 2929 2929 2929 2929 2915 2915 2929 2929 2929 2929 2929 2929 2929 2929 2929 2929 2929 2943 2943 2943 2943 2943 2943 2943 2943 2943 2943 2929 2929 2915 2915 2901 2901 2901 2901 2901 2901 2915 2915 2915 2929 2943 2943 2957 2957 2971 2971 2986 2986 3001
0 0 0 0 0 0 0 0 0 0 0 0 0 0 0 0 0 0 0 0 0 0 1611 1611 1615 1619 1624 1628 1632 1637 1641 1645 1645 1650 1654 1659 1663 1672 1677 1682 1686 1691 1696 1696 1696 1696 1691 1691 1691 1691 1691 1691 1686 1691 1691 1691 1696 1700 1705 1710 1715 1724 1734 1749 1754 1764 1779 1785 1790 1800 1806 1811 1816 1822 1827 1833 1838 1844 1849 1855 1855 1866 1872 1878 1883 1895 1901 1913 1919 1931 1937 1943 1956 1962 1968 1968 1975 1981 1987 1987 1994 1994 1994 2000 2000 2000 2000 2000 2000 2000 2000 2000 2000 2000 2000 2007 2007 2007 2007 2014 2014 2020 2027 2034 2034 2040 2040 2047 2054 2061 2068 2075 2082 2089 2096 2103 2111 2118 2125 2125 2125 2133 2133 2140 2140 2140 2133 2125 2133 2133 2133 2133 2133 2140 2148 2155 2171 2178 2178 2194 2194 2194 2202 2210 2210 2218 2218 2218 2226 2226 2234 2234 2242 2250 2259 2267 2276 2284 2293 2301 2310 2319 2336 2345 2354 2363 2363 2363 2363 2363 2363 2363 2354 2354 2354 2354 2354 2345 2345 2354 2363 2363 2382 2391 2400 2410 2419 2439 2448 2458 2458 2468 2478 2488 2498 2509 2519 2529 2540 2540 2550 2550 2561 2561 2572 2572 2583 2605 2616 2627 2650 2673 2697 2721 2745 2745 2757 2770 2782 2795 2795 2795 2782 2782 2782 2782 2782 2782 2782 2782 2782 2770 2770 2757 2757 2757 2757 2745 2757 2757 2757 2757 2757 2745 2745 2757 2757 2757 2757 2770 2770 2770 2782 2782 2795 2795 2808 2834 2834 2860 2874 2901 2943 2971 3001 3015 3045 3061 3061 3061 3061 3061 3061 3045 3030 3015 3001 2986 2971 2957 2957 2957 2943 2943 2929 2929 2915 2874 2834 2782 2721 2661 2605 2561 2529 2498 2488 2498 2519 2550 2583 2616 2650 2685 2708 2721 2733 2745 2733 2733 2733 2721 2708 2697 2685 2673 2673 2685 2673 2685 2685 2685 2685 2685 2685 2697 2708 2721 2745 2770 2795 2834 2860 2901 2943 2971 3001 3015 3045 3091 3107 3139 3172 3188 3205 3222 3239 3239 3239 3256 3239 3256 3256 3256 3273 3273 3291 3309 3327 3345 3345 3382 3401 3420 3420 3439 3420 3420 3420 3401 3401 3382 3345 3327 3309 3273 3256 3239 3222 3222 3222 3205 3222 3239 3256 3273 3291 3309 3327 3345 3363 3363 3382 3363 3363 3363 3363 3345 3345 3309 3309 3291 3273 3256 3239 3222 3222 3205 3205 3188 3188 3188 3172 3188 3188 3205 3222 3222 3239 3239 3256 3273 3291 3291 3291 3309 3327 3327 3345 3363 3363 3363 3363 3363 3363 3345 3345 3345 3327 3327 3309 3291 3273 3273 3256 3239 3239 3239 3222 3239 3239 3239 3239 3239 3239 3239 3239 3239 3239 3239 3222 3205 3188 3155 3139 3123 3107 3091 3076 3061 3061 3045 3045 3045 3045 3030 3045 3061 3076 3091 3123 3139 3155 3188 3188 3205 3205 3222 3222 3222 3222 3222 3222 3222 3222 3205 3188 3188 3172 3155 3139 3139 3123 3107 3091 3076 3061 3030 3030 3015 3001 3001 2986 2986 2986 2986 2986 2986 2986 2986 2986 2986 2986 2986 2986 2971 2971 2986 2971 2971 2957 2957 2943 2943 2929 2929 2915 2915 2929 2929 2929 2943 2943 2943 2957 2957 2957 2957 2957 2943 2943 2929 2929 2929 2929 2915 2915 2915 2915 2915 2901 2915 2929 2929 2929 2929 2929 2929 2943 2943 2943 2943 2943 2943 2943 2943 2943 2943 2943 2943 2943 2943 2957 2957 2957 2957 2957 2957 2971 2971 2971 2971 2971 2971 2971 2957 2957 2957 2957 2943 2929 2929 2915 2915 2915 2915 2915 2915 2915 2929 2929 2943 2943 2957 2957 2971 2971 2986 2986 2986
